-247.09392336,-28.71853712,0.20478870
-120.90833222,-41.23083428,0.27507896
129.72299777,130.87256615,0.19579927
-28.74358018,-58.10206267,0.19660645
23.01181805,200.22386711,0.20331554
174.84461189,67.30285633,0.18585638
-31.34605707,-147.76670308,0.16430032
8.01160311,-293.36021085,0.21991391
-170.90127759,-583.53020068,0.15919326
-1.97563736,422.89448757,0.21733714
15.06013660,-290.71029336,0.14328254
-50.72234486,-136.81751955,0.31212342
-151.30705255,-81.11575708,0.21762510
-27.87660079,50.53180523,0.24862088
-174.43652961,-174.32922302,0.13416672
-70.38000884,-129.34097924,0.26171898
-26.40135592,22.31658564,0.26548076
81.86971591,-318.33940082,0.23615876
-61.91759152,205.80687203,0.11509832
-127.79312830,-204.52336632,0.10906327
-164.95477711,131.94104554,0.16677373
-137.05651591,16.66240555,0.18983709
84.98793307,25.38939333,0.14423581
-35.64573040,194.49003800,0.24085709
100.36959120,107.03573308,0.24679450
7.77459549,-272.08048614,0.20756504
86.17454030,224.40153705,0.24026718
-117.20418522,163.45163955,0.19279510
60.34035745,-150.52847534,0.29091706
-90.06080136,19.37680371,0.21330845
-12.08950310,254.81085138,0.17300665
86.01455873,-311.42389218,0.24283793
33.51956841,178.08214147,0.26582756
75.95466603,-21.06280554,0.23383102
78.48718174,154.55729439,0.16741348
-1.71413232,-39.71906028,0.24211330
-160.22791293,-134.44387672,0.30237226
-167.62893638,402.54999081,0.23075225
-31.13354406,-82.88215139,0.23471582
-0.93851487,-199.34961082,0.12313745
-20.53493552,-93.90734977,0.23139685
-54.04589790,-6.60749111,0.14961802
-77.39905405,45.81350390,0.19871388
-25.21118599,-184.95629523,0.30652664
18.96062427,121.56007457,0.13934082
-30.23049633,223.63063689,0.27443170
-19.96988539,-11.84354924,0.12622166
-200.48285805,-309.82174566,0.21434188
-78.00333261,-365.09426501,0.16299136
-50.03940028,200.74578816,0.18782389
-149.15283531,-341.72178982,0.15388978
-105.99985288,-18.20438351,0.13459797
67.11991472,31.35910485,0.19950168
-23.58179951,-72.93164230,0.16429877
-61.65137846,241.71029852,0.13985604
-15.08461539,-78.75505576,0.15092105
54.57197111,-82.33478807,0.19146069
-15.52748962,-273.85621012,0.20419562
-107.63017311,-263.38509306,0.28428304
1.96608287,-73.23754844,0.16779678
-142.39124917,91.88923105,0.16504467
147.37084454,97.05931443,0.21913399
-132.14802296,-157.04875942,0.22848993
-126.32558660,294.26051180,0.10970534
198.80358265,-84.31313105,0.15945245
48.29392300,-244.05773791,0.16685482
86.64702845,85.64289227,0.22520951
-53.03452922,169.57471569,0.24263907
207.37420817,22.81503111,0.17091613
-47.85127860,-82.46578947,0.24854216
27.80761372,-225.27897386,0.18432254
-111.85009021,228.23528687,0.10146767
-28.98965699,-173.26098113,0.17655661
226.47335798,-29.69472535,0.23329115
-108.51732658,-25.29255323,0.17514510
108.08746250,-169.71598622,0.10342252
-107.90553579,264.99854584,0.20080770
-163.36824580,283.78832164,0.20424447
-32.58618856,17.09985315,0.29059545
-70.71127651,284.27574981,0.15802604
72.92175161,-22.06035399,0.20451074
-46.35112840,201.08984869,0.21304933
233.08757519,-300.78298927,0.15106671
-48.67686474,-193.07381045,0.25906524
35.20601365,419.05953142,0.23842484
56.68174544,194.64669088,0.19673722
-38.45667627,26.46099155,0.18782459
-101.73106451,-29.23553547,0.19258375
-62.65224858,-549.69858771,0.27875792
103.90655665,54.92458191,0.18484627
-93.36115292,-163.65183001,0.10694886
-21.48877561,-187.56944356,0.13646408
97.95007350,-109.40683732,0.31047328
-19.38667643,78.11813706,0.26412080
-288.25092494,235.27249744,0.26760085
15.69863814,-416.07841030,0.16284943
87.10678189,209.23693360,0.11313124
-2.38347648,-202.34477935,0.23850883
-89.79797896,-156.19657250,0.27999800
78.33667048,235.86598897,0.23819482
63.24289008,298.35501482,0.16992919
3.70536339,32.74860661,0.10449365
128.45966517,33.55385209,0.16961289
-95.65219124,-197.09376016,0.22714394
-56.78333664,96.56908384,0.27161080
11.54642462,-83.37498781,0.18780745
-1.64127860,34.48688179,0.23656471
-24.10670016,-317.82211740,0.16031348
-56.44726137,140.68116312,0.14392302
-25.23334987,43.17368427,0.15551339
71.71564095,77.52380021,0.13563678
90.70431194,-156.47420377,0.23001085
210.14058540,156.00814670,0.24778732
-85.75541469,-54.48820989,0.20909272
221.75469118,13.61037784,0.18564654
220.34888590,173.49831731,0.08586831
186.15804571,-160.34931764,0.23420889
72.39545188,40.19965990,0.14902739
129.93515504,92.03934218,0.17080390
54.78833546,42.74412701,0.24912664
46.34663729,-62.17360005,0.09182233
150.75280158,-36.17914590,0.22038503
19.67539214,104.55514263,0.13221890
45.46672113,280.44070676,0.18664678
-134.32109670,-511.37055101,0.18242033
317.73801108,-472.16737994,0.18090910
20.40890231,-142.97286445,0.20637692
-75.25497814,-128.98662321,0.19140700
142.82872176,-202.74171135,0.19828733
-24.02174646,98.68803271,0.19384252
144.25062447,35.27888996,0.29915644
45.02507943,0.46011818,0.13956544
97.64255250,-110.95316117,0.18072723
-6.47392833,10.42009148,0.21584902
46.33414521,-9.04491677,0.19857872
-58.42589241,46.68069518,0.26762137
48.98383811,179.19210823,0.25489391
-23.55301066,-22.06595435,0.15447252
-28.83896068,565.08909019,0.20344740
-57.61629759,248.95134265,0.29495049
133.70745810,-261.04215807,0.16159966
21.45489415,299.62510726,0.15050515
-54.47961375,287.61852220,0.23682793
-238.34113020,46.55955940,0.19061128
55.33470103,-6.94249469,0.22791747
-47.05162448,162.55155047,0.11760322
-27.56159105,-145.65464350,0.25061152
120.69368093,42.59456052,0.13436840
-144.00887808,-103.20233430,0.13820956
49.32420767,151.44496881,0.20883829
-127.76741035,542.70121836,0.26622285
-68.13664186,-58.08097151,0.22665443
-78.32337884,-286.29429520,0.19369719
70.64362026,62.55961091,0.17805403
-59.54119862,60.76115746,0.14751613
2.42320966,452.15538566,0.25723420
-59.11461021,176.57396976,0.13797275
-49.99351751,182.69946803,0.16513616
-168.64415656,-720.21111577,0.18817617
114.25321332,-515.72326200,0.16156181
47.82604707,23.52244165,0.19816715
79.55034261,151.47877597,0.24576164
-3.11271138,250.07174001,0.10078670
-6.59248360,329.63946271,0.18991434
-103.34455753,113.99084282,0.17726171
-83.54270644,-108.91790522,0.15690478
213.12827081,-10.14788100,0.23319539
65.14626430,317.87641421,0.10363657
50.55836684,-197.44537886,0.21661527
39.03878745,7.49359401,0.07136578
-68.85743881,67.69758714,0.13711635
-121.46321151,-95.34372317,0.17567127
195.78054063,-217.69063438,0.22295492
-39.87311667,-213.91162019,0.17524020
-68.78471928,86.56696657,0.22887780
-205.18014413,65.63824323,0.06927153
99.80499470,286.58311350,0.20464925
67.56537085,-272.30914412,0.21683875
175.75107984,-61.03387911,0.21921904
109.55396923,9.85527728,0.16249696
-126.64869467,-285.01741551,0.18038783
-45.94901945,270.30253552,0.22245649
-10.20438487,124.11609900,0.21180966
81.24575482,-214.88759457,0.22076444
99.89366869,68.44321343,0.16048058
-218.88258696,-124.79484087,0.21783837
-133.79233176,283.58990043,0.19260976
61.95532583,-119.89312339,0.23916981
-1.28472816,-81.36072391,0.17524235
-7.41534058,-251.75421967,0.24154071
9.81293242,26.89356923,0.14950494
19.52860400,-158.60520661,0.18591821
-109.96858206,127.00325989,0.17400673
-240.96555192,-36.43326369,0.15043252
-28.03264159,-58.78754780,0.23253968
102.09687157,51.76642174,0.18787106
-146.91299688,-168.93209581,0.19243343
13.92204363,22.32094807,0.22586204
-35.18132589,128.43330489,0.19072307
-85.92459145,238.27888776,0.27897860
109.74792131,18.91414512,0.09811129
29.69023210,57.65921362,0.21082606
-39.33114039,-267.41904049,0.14062579
-124.72716578,588.42937782,0.27523498
3.95960345,-226.58981434,0.22764654
-142.60387190,136.67877108,0.14971017
64.79932814,-237.92751249,0.23041269
11.57234966,99.16976870,0.09922156
-42.42189318,-411.89889950,0.18913619
244.69962597,64.28365160,0.11145826
78.61612709,13.61945436,0.14440769
137.34990077,108.31083139,0.25463262
-19.01293522,163.86768559,0.22260155
22.92343916,-113.39013531,0.15554145
82.24204651,280.36716488,0.20738587
93.50165422,29.28802722,0.17397584
4.65908219,-218.29288218,0.25314767
140.10198908,-117.58960542,0.21000190
-169.23114963,-296.20168976,0.19324799
144.85545130,27.46856911,0.22442946
-17.59758328,38.01403227,0.18664740
-119.26782113,-49.76031053,0.07374435
-14.44665919,300.77861400,0.14976039
-36.73956256,-57.19362004,0.13337184
-155.58826784,-83.11936534,0.19815817
83.26946311,-95.58459690,0.17475946
-119.09166233,-294.00574068,0.21557649
-104.97208082,-1.13200085,0.20480442
-43.54962257,-76.69116365,0.25128766
30.22430352,169.74644267,0.20069006
70.58744810,133.58527003,0.16617170
49.09568567,329.07378751,0.21808410
3.35048883,-93.14101185,0.23024538
-15.18375319,172.64033272,0.25013345
22.21663646,326.52733738,0.27545336
-139.60738338,52.32055291,0.17613545
3.87220680,-178.83650944,0.12980333
-21.82648857,-142.75426990,0.16741779
73.89339869,-225.92009014,0.16067612
-6.81540445,-136.47211852,0.21229915
19.15612339,-42.43241062,0.16361369
67.25658218,42.31569491,0.26471465
103.64389902,95.50741350,0.22836263
-95.78790839,-63.20943291,0.25883116
16.62429340,-215.83344312,0.26417183
148.25651694,146.53065730,0.28380754
275.45452932,-200.80105653,0.19706651
35.09168818,-20.44326841,0.21589024
118.77256731,-421.90570790,0.31902977
86.74682206,-41.24190393,0.20554059
-64.62050137,-296.42627852,0.24242073
8.98990457,116.96809924,0.23894980
-141.32538409,158.18291671,0.24555003
280.07221321,-279.98553618,0.20969965
159.59034691,-22.35641310,0.22706106
-1.55340396,31.49825621,0.16752771
280.24142325,-244.13099831,0.18798487
-119.04960809,326.01495274,0.21245755
4.81781491,23.42105347,0.20699952
118.63859538,17.96805595,0.14608562
94.11084359,251.43427310,0.26127352
-6.70843940,326.24277064,0.11469699
-46.55424132,-243.29829902,0.23196112
-15.43863911,116.01267022,0.24838690
172.44526601,1.26459698,0.14863242
18.37411145,-186.12371561,0.18018310
110.20659346,106.53862253,0.24231973
52.77739750,-148.78137248,0.22543749
79.94355383,-183.16199039,0.20880467
-65.07730592,-86.45163755,0.29844292
39.84231512,18.10174154,0.15123389
-57.07729684,-338.25301872,0.25856662
22.73518751,-436.11067919,0.14127520
105.71975121,-539.89534416,0.26188686
-20.11101360,2.66693554,0.24193259
-33.56415229,-50.72058867,0.26475217
-74.03993658,282.21304146,0.19607582
42.67250926,174.63172326,0.17811787
4.61673294,-249.12190973,0.17260761
-113.20441438,-331.40293447,0.26564103
-176.81628345,-228.39094226,0.21254637
34.13356274,373.77801859,0.14475327
45.37739782,-53.14846790,0.17484822
49.88087738,22.48087529,0.18142405
-31.15590385,179.58999789,0.16606533
-39.01201053,-267.68920971,0.18412887
99.09148554,-277.15607574,0.17841207
49.19860345,-73.31884719,0.15141779
92.28613505,-8.95915865,0.21118499
-20.60357682,-228.24797601,0.11873721
-85.24426215,-394.14298537,0.13926992
41.72770692,-48.49614525,0.18103467
-106.28251036,-38.50632931,0.24614821
-88.41024175,-50.94231784,0.22298560
37.21585842,-126.29922312,0.18125718
125.15164197,-158.99252993,0.13888421
-59.45907070,-206.20785615,0.28200348
29.22355002,36.88857104,0.11826370
-13.27680368,14.07245873,0.26654744
-94.99348831,167.00446201,0.16021883
-163.11680979,140.48382871,0.20399837
-73.10641628,-100.92771489,0.16514832
159.50412520,77.16320802,0.16325025
-36.03252060,-55.18824957,0.26947657
87.00227788,-303.25755448,0.20201932
21.51277503,-2.31569756,0.27580561
-14.53353258,-450.65349943,0.24607354
58.32659788,-60.07596653,0.10516740
-133.07673056,85.92837314,0.24092435
-84.88534804,201.31859313,0.30248954
-45.12685724,148.57218158,0.20213683
-86.81251946,-248.45509147,0.08177542
-27.50150097,-128.17726162,0.20938068
36.27916542,162.42932976,0.24189168
52.82736384,513.93628902,0.23274335
18.01872920,86.91809118,0.26813933
-102.49858988,36.20091672,0.14380898
1.86580810,-136.24596532,0.14256643
-75.52619033,355.09262427,0.19943752
169.51106299,22.91253874,0.19261866
-64.19227796,-27.72296035,0.23770973
-54.52461606,-65.13675694,0.16713460
247.74051904,203.65427732,0.20345353
-61.44810415,-194.61143766,0.20291416
-54.24802445,-510.45983447,0.19606914
-27.50412393,121.33834916,0.17162862
-131.24439389,247.20826392,0.19847302
84.22598873,-406.03389980,0.12046579
-77.25504468,254.71984725,0.16162653
123.48186264,-380.98835428,0.07205981
-110.15968978,-272.49990617,0.17463042
32.28133439,200.36498095,0.15501512
56.45360853,24.11347845,0.12185687
109.97494637,-117.56334636,0.15083454
-8.06519894,162.38464549,0.23174273
-26.57086065,-162.65494677,0.19505109
88.04261182,60.23968440,0.19990093
-2.68985934,346.71021263,0.17762947
-99.81151662,258.73822883,0.24297411
53.66423499,350.24174696,0.16144194
119.17741807,-271.89202688,0.06882875
3.00817163,-190.91072365,0.13229371
153.41133698,276.44041189,0.17912083
0.16288656,114.49220022,0.18552995
-38.32812367,-120.33530044,0.14829323
20.76559643,95.24914741,0.17691411
72.89221883,-33.64274723,0.19954934
-49.98528864,-35.95687291,0.24406319
141.59551925,-468.31149364,0.13843934
101.81077137,183.89322521,0.15522046
-115.38890805,-316.21154219,0.19116048
-85.66514749,-226.16852824,0.22023029
-347.36088310,-201.79839782,0.09527442
134.27428055,-265.37829173,0.22845248
50.45645741,-238.42416733,0.29972641
-68.98535299,-126.55503393,0.17509767
22.03648839,155.01389879,0.22413523
63.39705993,50.25124470,0.20061933
54.86070228,-44.44086942,0.18693279
-110.50697971,-111.68829212,0.22426490
-53.63513899,313.45337448,0.18233048
-90.07217488,-310.88508991,0.08435905
98.18769123,94.67950363,0.13554714
-83.14388665,-28.31024534,0.26244258
53.19175188,-227.53492385,0.18172981
-17.98732168,-75.31584561,0.20495726
109.28103486,89.91909514,0.19618440
161.77740586,-26.76259011,0.22013405
55.69316873,-350.55389513,0.18960035
122.87997122,158.82164683,0.16896770
83.14876787,-199.72232452,0.17336631
46.85156714,-209.64345630,0.17251736
-141.74360832,32.64339860,0.21175600
-2.72920197,-357.10921511,0.20614504
35.08913198,-52.13769235,0.18469190
-104.51928923,637.93710820,0.22205024
46.97481572,-251.28124677,0.16564266
146.52898321,-129.93329070,0.22331288
16.37764986,-55.12685025,0.23615985
-112.34183078,-238.81143725,0.10921449
62.08604269,-160.81629083,0.15735468
-4.35917573,-63.46870308,0.15444543
45.88686795,-6.13034911,0.19365689
-24.85169938,-219.28018380,0.23154791
45.42508201,130.05503385,0.13943086
-64.44379973,-107.72991939,0.17866631
31.43139151,-89.66836578,0.23736480
-8.19520681,-208.37296413,0.27416643
-10.28584163,-262.03163197,0.11503482
-24.26222874,41.27329437,0.13282928
45.01081413,6.96864453,0.08200383
-99.28572759,98.14621310,0.18994666
-89.97046772,234.60619629,0.25414473
81.79925916,117.20918182,0.18013427
69.00795585,-59.54968833,0.06078083
88.94777522,-78.38544397,0.28691307
227.00920560,353.57212643,0.21725018
205.07071264,-384.40631701,0.23240336
-39.71936119,-234.81711499,0.28074650
-23.79867259,156.12998759,0.23970604
8.84578833,143.42214578,0.28489078
47.29468811,-91.88248899,0.22472138
-33.49086412,-52.72518742,0.12903933
148.50977656,-11.67754293,0.19515327
18.39380793,-245.69925884,0.20438280
76.95244741,342.90595016,0.26690631
-107.89037928,143.24048921,0.14562217
-27.75089760,-266.02503390,0.25550641
87.25715450,118.97461355,0.19590144
-26.24576613,76.02840520,0.26446458
254.74399156,-140.48341918,0.18033096
-224.18816523,-166.05876118,0.23303302
-145.12874856,160.37012358,0.13037777
70.45045379,-156.37703816,0.23054750
-50.53173099,-18.40247782,0.23829653
196.30065486,-379.92323802,0.22698630
169.71972242,-19.48481874,0.23603804
-183.09047831,198.36844722,0.32980697
-55.65476456,-478.65107514,0.07873774
-56.28661259,-377.12597100,0.18825687
-89.96634725,-293.17785492,0.17199690
-112.09813209,81.82046583,0.23979353
-37.15163500,62.90994649,0.10746620
-137.82550015,-106.30426410,0.14281538
-96.67685846,-124.68684660,0.21167397
-160.44868266,255.23108280,0.18901323
134.25521917,-69.44518569,0.14458071
80.47624628,315.46730292,0.19778537
-161.98519362,-32.07248369,0.15513744
-151.74292533,-28.72034000,0.18674755
-10.67121796,-113.09531012,0.24230415
-1.32336523,-277.87939836,0.15046001
256.69955517,16.97953039,0.24545591
79.24858964,54.39559582,0.25761951
23.70098339,-99.05933599,0.13934972
49.51361909,-209.66372930,0.15974848
-6.53697113,-134.19402493,0.34009095
-112.13922414,351.57477789,0.16441538
99.49073763,63.51701383,0.08872447
-115.09976815,70.67860904,0.23843707
-110.70699633,-312.03919640,0.16735797
22.60085019,128.50152779,0.18144118
91.83546575,-79.84099979,0.20959879
12.32165385,114.81279740,0.19445373
64.41329030,41.46044240,0.14334806
-12.36759841,-6.90035836,0.21038524
4.17593069,49.32353627,0.15489238
-54.70653753,-119.71341358,0.16038520
159.76351815,-262.49608145,0.14557960
-24.84308256,-80.79988485,0.27740490
112.30641306,-51.89212933,0.10474497
78.26601282,14.18408843,0.19043908
-40.00837059,266.54272174,0.24059331
-41.15215301,-267.96339892,0.25330742
-3.51625469,-100.15757856,0.29068366
-55.98310007,-64.28849433,0.15078907
-5.82142037,167.74947614,0.23595269
121.48820264,465.20501802,0.20822403
-13.13300673,304.32246871,0.14881972
-63.21455648,-52.82318635,0.16840671
-7.87637715,-108.28160149,0.23328100
105.11063346,-165.25648931,0.19151692
50.42785630,39.46140391,0.14649745
-103.84563222,83.37421817,0.18547477
-27.01410718,-21.49794140,0.21644625
-55.69435261,171.73455544,0.26852853
21.85141815,74.70082697,0.23616120
38.98408919,158.70724021,0.21383591
135.49430953,8.66159631,0.21642468
44.13525188,-315.11420246,0.24599272
19.96188678,244.57218328,0.26294947
2.07883286,-51.92511020,0.15847133
9.09397926,-176.72605499,0.27585328
-183.72312759,115.10406407,0.16422507
48.49336639,96.89242139,0.24057916
-107.80946282,-367.31842215,0.18406442
-32.61089073,-82.31672113,0.26026415
59.48383057,28.54249422,0.20938791
-8.83629185,-220.71877766,0.14585240
43.46161985,258.16845640,0.15392336
-167.88355998,-174.70033268,0.25594342
75.41327426,38.65909457,0.19152582
111.24329694,58.35643775,0.14801950
-11.17737364,-61.80424854,0.25503136
96.17659524,254.93305056,0.24793961
-158.09253735,109.06692929,0.25067019
80.05708944,19.50461426,0.15026732
-28.86347824,168.29254526,0.18266578
-126.58571272,167.98154407,0.09635367
59.93591086,75.42389845,0.19201342
-21.91770731,504.30854930,0.17297075
129.48466727,174.53705990,0.14827382
-6.48868227,128.05388987,0.25786583
-113.52656889,38.40641996,0.21525251
55.87207138,-38.75983310,0.20394757
-103.54857148,-171.45987705,0.24503181
150.37915317,-149.44437073,0.27100200
-115.08065993,-241.81242767,0.22863191
22.95020094,451.32716523,0.20874854
-104.86396773,362.36893843,0.23712140
50.16030941,-2.05386744,0.16648929
-103.77727398,5.24906829,0.27042329
156.96644337,58.60522850,0.16413238
-58.29848912,-109.66928052,0.21644461
68.66190432,125.00579406,0.21579062
90.60393735,-217.61537005,0.22859868
-48.83693672,-25.28991887,0.16218206
51.93353845,-44.73060810,0.19767707
-104.82957288,-39.31493406,0.24286309
160.14046101,-56.69830451,0.12735306
65.22463890,-194.08345954,0.28935007
74.94529293,176.46180240,0.24113135
-86.64403753,-316.12468392,0.16993854
-155.82231193,135.43553163,0.14180530
-106.92826097,61.18083303,0.24918431
63.22910366,-55.02093485,0.22512149
160.65566573,117.60470097,0.12761665
54.38445802,-94.38353674,0.16342696
42.24403213,-166.17810371,0.26316549
-184.37734871,67.84732053,0.20530833
69.01493472,-6.25842398,0.22007589
-53.48360758,-80.50889781,0.17434319
200.27880834,-94.11855845,0.11086365
21.10415299,-514.58448293,0.12321782
-1.81587366,6.94489683,0.17149656
-197.88633528,-107.38094214,0.23270181
-127.42857101,125.21763282,0.21836776
132.86808305,136.17082552,0.18969759
25.63887983,-169.17547087,0.33952109
83.60251746,124.67905987,0.18516555
36.65438405,325.65621211,0.21125651
-190.07039842,-4.95765340,0.16158297
-69.74365935,-216.59442712,0.15849512
-77.82525082,133.11757204,0.33363550
32.48260930,27.28130362,0.19959674
64.31482650,-39.06986410,0.18162756
86.40501038,461.08433733,0.30535574
19.44632665,-69.75139026,0.22037175
216.79454834,-17.00707807,0.20792547
49.33077335,-78.56020667,0.18319685
41.37130960,52.65296577,0.16276307
-93.05371782,163.85173293,0.22331698
-93.29474055,-11.90873183,0.23526824
0.85024725,113.77593824,0.19324710
-90.09631512,-296.70494616,0.23777996
32.84308315,114.18599509,0.23015746
-25.07509679,-73.69856415,0.18251933
16.42976701,310.00612430,0.25235022
-41.56662422,-235.88292566,0.22424900
175.12974103,-301.13117403,0.20785802
-112.93118350,-80.51006444,0.22248491
124.91496177,-236.20025630,0.26235657
111.44231206,122.54081281,0.19050191
-19.29770131,272.77337368,0.16021697
126.51262640,-51.81090267,0.31825375
50.62359116,-256.52693313,0.19160271
-144.62759555,-52.40572338,0.19079410
-64.20396680,-12.71646644,0.16327196
69.50605513,-51.26690279,0.16253679
24.39228910,-147.73505361,0.19733842
-76.45143019,54.76653863,0.21701733
143.33427048,-408.01695762,0.25287065
135.92544802,-238.39790757,0.19480388
-29.81676548,126.03748132,0.13424728
-103.96106267,313.02834852,0.18724384
-40.03038559,20.77248882,0.20389132
-60.21586070,109.58490851,0.18114299
-226.36459815,47.89177480,0.15721784
68.45281386,217.36939089,0.15981154
-90.66202706,-27.52982885,0.15132999
-4.49299993,-116.86708067,0.17833027
-33.38576465,3.78707647,0.23339432
-214.69519066,98.01610518,0.15053715
-168.89077843,134.75273136,0.24526240
192.87124744,-358.17871470,0.18141299
7.27928350,26.17054180,0.24218473
-0.64460551,13.00305471,0.23705522
-104.99731167,57.26159343,0.11035834
169.91643911,-103.70023264,0.19229373
77.85280560,-248.37349598,0.26734763
-3.96151057,65.27548588,0.24990259
90.63628578,-96.00093479,0.15790647
-61.77746035,-35.46046070,0.13239317
-129.43131846,-212.01520538,0.23899418
-41.88424512,141.17846265,0.16961194
-82.08352271,-38.49655597,0.25587039
-85.11864788,83.04673206,0.15095262
8.07090145,-132.77758696,0.20466077
-46.18376992,-166.43292671,0.12056893
206.78549223,-236.74859616,0.25054976
-65.88542280,-94.94175537,0.12350078
-70.71515923,-81.08382173,0.18945327
113.32207763,49.11343813,0.16444230
105.52993654,145.09153628,0.14847624
31.76824173,-79.37630341,0.21876772
-5.07123224,-361.26792141,0.18921194
316.14527431,28.46980377,0.23009455
-110.96024656,32.17281109,0.17755288
87.95315101,209.41852986,0.10348701
161.23440302,-136.60094502,0.16135703
154.66977979,169.73039046,0.35869500
77.37604061,-202.80785090,0.15889209
-71.83208402,-150.80092889,0.22452884
97.37969684,210.97421356,0.19220266
-128.85300123,156.36006149,0.16174887
2.69349638,-178.41015840,0.20282699
-49.30167111,-391.25401356,0.23292093
191.76227722,-289.61643148,0.22536868
47.92693091,134.71125945,0.18802785
-203.62216967,267.24130799,0.26676255
90.84911740,-51.23437183,0.17292439
161.92020382,-211.39464045,0.21614717
145.37283464,229.78695404,0.23345690
-146.93034040,-59.89655645,0.16388665
21.62346040,54.27994731,0.18019081
-3.14614548,264.66967167,0.21083875
-41.04398021,-109.03452977,0.13402628
-39.33340094,87.23045725,0.13147320
-56.03757314,-282.98064171,0.24047493
-9.60142091,384.97169389,0.15437658
-132.71171219,214.33863559,0.10256148
-104.44214896,302.58428801,0.14976175
98.18113408,49.25166950,0.13742492
52.74871678,-37.24311207,0.17244703
-285.95445763,229.00724230,0.20892364
28.97428763,-1.55653161,0.16403859
90.82958677,-222.48226346,0.22714834
-8.46887761,-93.31811088,0.26602591
-18.75450648,49.62148679,0.18465374
7.74384748,209.62327597,0.28451661
-8.59162260,-280.04745523,0.25394471
20.58999636,-56.51115206,0.21043897
-40.61095040,-42.10487151,0.20222387
-55.77987590,163.60631464,0.19599763
22.22081700,1.66361786,0.12499945
64.90528564,73.35304135,0.26167274
23.76387387,214.48470514,0.17121938
-160.74602361,67.40459681,0.23747405
64.16739490,92.57329923,0.27495800
-67.40888854,-23.30576916,0.14675613
41.23110246,362.89183110,0.25651039
-216.95061908,139.13143291,0.22625570
-121.12194267,0.48100119,0.19861903
-25.13529694,-43.15719472,0.18452754
93.07683395,-97.27398950,0.27105325
-209.53047339,-114.22453841,0.19355946
41.69752451,149.37692513,0.25265817
107.09983455,-27.13474681,0.26028647
36.72460327,297.48161840,0.19594159
37.79245650,24.43969276,0.24099270
-46.46673988,-135.48894270,0.16324829
32.52587853,72.73690334,0.22328599
-64.21198063,162.69503574,0.16228876
-35.91394761,-133.24053108,0.21597878
-6.86646142,64.79891383,0.15428504
-112.96644771,-123.89032871,0.19571600
-112.87147431,-69.43806929,0.16628519
-224.45047981,44.70283263,0.20080436
-220.37684422,-141.72200939,0.21155862
114.77072895,-321.33096071,0.20589745
-37.57128654,-419.64063421,0.19974265
71.06186903,-100.26805798,0.20054800
148.50730225,-222.36004693,0.17375425
131.27193621,-549.27485879,0.18323755
37.11405355,107.76328333,0.13958974
-264.22714025,-321.67444824,0.23119847
-46.65365145,1.23049249,0.18538016
-32.83979747,-353.89848822,0.10451361
102.59817546,24.14918432,0.18754180
98.49658198,94.80572522,0.25544670
-252.06706083,-246.95784797,0.22034457
90.76782299,-59.77349439,0.24972882
-17.92510887,-174.58590722,0.24386105
156.20782478,-24.39768991,0.18957774
118.96462228,14.34049501,0.17761936
-36.75104707,-53.89868423,0.23862906
-110.79961232,-1.82033995,0.17971759
244.82767813,133.17845495,0.18957065
-139.45493220,285.16461686,0.11565497
-164.28529802,-139.46267286,0.15123953
45.77778917,189.88833115,0.18457460
-12.03242668,-164.53364539,0.21490013
-124.98266164,-11.57323326,0.20641383
-26.55627978,18.39697092,0.16967977
31.37690623,-76.46737732,0.18186238
-57.61097249,-137.13052147,0.15588798
-91.74873796,-81.93912846,0.19381015
68.73932517,-203.53556206,0.13339221
26.13091244,-38.17743929,0.23712667
12.99830544,-102.83914205,0.16750670
-17.63415216,133.54316356,0.24186643
-61.84762068,32.74200526,0.11340726
179.09432075,95.54418702,0.16898693
53.93633589,46.52451301,0.22069052
204.60843725,30.31509644,0.14029353
7.10146583,410.24467442,0.18910945
-61.78888467,1.39915650,0.17224919
1.53597905,144.01086749,0.21878454
-40.51967582,164.71398117,0.20229982
-84.07563636,-76.22247528,0.25181107
55.99630032,-54.53686150,0.25421557
-56.42642372,16.01890756,0.23443796
124.00775189,70.77569553,0.24501036
58.33410385,116.87450274,0.17100064
-54.93231019,494.93856151,0.20718127
208.46212222,-263.71567608,0.15804734
68.21339919,12.20005984,0.19635738
126.52514888,-248.09539068,0.10907084
4.88507040,161.01029960,0.25916538
-105.49478363,294.66752032,0.18230398
-205.55845074,-116.74364473,0.17359700
81.71374994,-48.65382291,0.27210582
96.68967121,117.99718186,0.14356837
-52.95503098,-23.43426160,0.29004381
98.30879414,-354.00254852,0.15029533
-29.55577805,190.05286349,0.17301448
-34.13249996,-200.70911982,0.20162867
20.40360812,-143.61669566,0.12111622
38.30090236,-201.79233096,0.25113845
24.09266082,-160.26746442,0.21435108
-11.85626053,-187.60804037,0.18347730
-127.67465307,285.55188876,0.27613259
76.29511658,-12.80203304,0.25715260
-0.08194522,80.33390128,0.27841329
-67.10552578,429.33051238,0.07664345
-78.44278365,-188.08275796,0.21036811
-133.46736168,156.04330461,0.15334382
-28.65821541,186.15431919,0.24280293
32.01472504,139.18945679,0.26034728
-38.11786212,-151.18038488,0.19214020
-86.76349490,-116.07201335,0.21304479
-93.23895572,-51.21126898,0.23710494
-79.21464232,-200.81389431,0.25455690
101.89030787,-53.18263379,0.18909906
-25.14594795,34.68704701,0.26731626
-49.99348237,84.85064373,0.16816498
-28.54367177,267.39288900,0.20076142
-69.81166275,-9.62275937,0.23693569
-154.79653520,129.76254649,0.22734031
109.92241188,395.81810202,0.23802322
-0.19937869,-211.21429065,0.21736253
-92.82235641,144.73314743,0.13279651
-188.90760993,-48.82999092,0.22423472
-18.83639285,32.59892152,0.21249040
87.29173355,365.42643082,0.25409859
186.08058140,294.78186186,0.15934495
179.13414376,-87.96564825,0.29150133
79.39013007,94.73714479,0.15279365
-0.14090909,120.72277427,0.16003738
-51.96767394,-194.04761822,0.15597072
-51.79802789,210.74724256,0.14506704
163.65016771,111.57430726,0.19615288
-111.26500046,-225.17446727,0.26666656
38.44069059,-229.33164769,0.21360587
102.23587745,108.61896733,0.11776607
-27.38899898,-204.07003538,0.27502378
-100.41026974,326.28299176,0.23924308
6.71657099,16.33140513,0.09124722
76.08915167,3.53372792,0.19872336
-309.69582655,134.83134433,0.15964783
80.48355229,-27.76432011,0.29611370
-112.40183945,25.31001229,0.17842662
-8.92206440,-178.03994700,0.23633694
-20.40123944,-10.22946834,0.19234226
-188.79074407,-45.07591030,0.21522523
35.84145348,-110.23569857,0.24106192
-69.12605436,-620.18709548,0.18203403
29.21681649,-175.78402910,0.26211157
46.78932744,-188.06337592,0.20335382
-102.85208732,101.90415769,0.27532481
-48.29458244,-334.99294659,0.23426135
10.65421874,302.84594049,0.18939581
-153.76872514,136.06428592,0.21526187
102.94291132,-16.47575896,0.11588966
135.01000769,-147.70483689,0.22007626
-6.47203427,-21.27881488,0.26179737
39.55570860,229.77794861,0.23132443
-18.04787454,-81.82442286,0.15357963
45.81541665,-159.63942346,0.10842924
82.94861122,-243.95088841,0.25429828
-83.63947223,48.73100423,0.10031366
43.17428809,8.95586733,0.16916480
-32.09351482,124.15257949,0.24449262
-25.44215313,4.64220020,0.18307379
158.90835490,-176.41974176,0.20888719
-3.30035220,90.99452842,0.15958236
93.46009230,-35.04907745,0.21788912
101.14270158,41.55788933,0.21325257
39.95135495,-276.09956065,0.23301429
-36.23215429,203.83956295,0.13313370
95.50683648,20.46536570,0.16466771
-175.86945778,-327.88650789,0.23507123
-125.31238840,-192.96395026,0.07690235
164.67676137,83.25767069,0.20691683
-70.93168817,-100.36837380,0.17822857
57.83703622,-59.39543069,0.29486136
-34.37889655,157.91058181,0.25897941
-41.85133097,-99.86924086,0.18269042
-110.57245673,6.23764991,0.16719792
-83.84976920,-76.36471096,0.14740862
-62.76868555,156.32103099,0.16167260
-0.46890874,-312.02674550,0.12562160
-95.99781590,71.52854189,0.24308609
-75.20193995,-42.98261700,0.26661793
44.49585184,37.85345600,0.22141447
-179.58056492,4.13296666,0.16053061
-36.06487235,-60.72742959,0.16837913
-68.12485150,524.81643229,0.20886095
-37.72012696,54.50873720,0.22071213
77.37890380,-54.61472001,0.26043279
-25.17697594,252.93904437,0.20768276
-13.37434426,389.56860252,0.21163406
3.54401778,-19.18973253,0.17062524
116.05325162,494.84162197,0.27997506
-77.47458105,151.48503935,0.17263447
42.76255440,94.47143848,0.15180208
-19.62444109,-124.68570314,0.24144418
-49.47348403,-301.89753857,0.18669341
30.26374282,150.89483571,0.12303857
108.30796479,-168.64000175,0.20194770
76.47715464,62.94163224,0.18919631
30.73060063,44.54486006,0.27944435
128.25408542,-115.39529198,0.16942856
6.91056740,-229.59002807,0.12333437
49.84790611,458.05682378,0.19342443
-34.15644886,382.98139565,0.12720009
58.57191038,-53.70868820,0.21955687
-116.73736966,239.80568424,0.17108603
-143.53662355,287.23573301,0.12095658
44.79152472,139.43057866,0.22846236
-90.29194070,-42.45892004,0.23788625
58.34466028,498.34561702,0.14303846
24.46866976,178.22825051,0.24294041
52.74683249,107.80597278,0.17032869
86.62288200,51.22337083,0.16174462
-119.66591023,-61.35933032,0.19524085
81.23435482,-211.85229171,0.18432174
-32.92626835,-20.48874853,0.25009163
112.59973778,-288.16748791,0.23903512
119.57724217,77.10975989,0.23701821
64.33356033,37.61135594,0.24845635
74.07354336,-109.64429426,0.23883574
-98.10562055,-213.68490398,0.19694759
-82.29305707,-149.97864107,0.21442559
-127.39672160,52.24808668,0.21791779
119.79242739,421.90696570,0.18004928
32.51323810,216.38878623,0.27984460
-31.83481418,-135.20959774,0.19662185
148.17719571,-273.79873945,0.17805214
53.24276761,-71.07284710,0.12251645
-31.02448156,-81.61485584,0.18334606
-93.43089161,-41.57314219,0.19217262
-24.00897346,-39.67920191,0.22368970
-0.63152769,172.88340735,0.19279917
73.82503554,-142.54851839,0.27936930
-10.43548040,-182.23493434,0.21643996
-49.35478669,195.88695442,0.25529955
39.03663760,58.68967878,0.28816746
-8.94639132,-4.10880420,0.12121158
-35.38601137,356.98867445,0.25091010
109.49021845,-277.69314713,0.19454998
-21.83921406,42.10704496,0.17967645
69.44548713,-107.26081387,0.20208592
-0.50655312,273.69715625,0.21630207
-129.49024619,-351.16543517,0.19329231
70.81816694,-155.83647668,0.19682957
9.43108121,76.32883371,0.15304219
-34.47649737,-236.27118033,0.13732926
160.57932615,-135.35749626,0.21769857
21.85922432,-147.34031841,0.23220081
38.85601763,-143.66868140,0.17116352
-113.08998837,-26.49427149,0.23636103
-82.52900801,17.12078010,0.15022691
29.67644830,-5.99757959,0.24372315
-20.61393183,-71.61681826,0.23618486
69.99430947,-248.60314543,0.19217374
131.60143162,242.52673637,0.18097695
74.48588421,-92.21294585,0.21530817
-76.78977074,184.74253228,0.20144327
-114.64430084,108.83596408,0.30828155
80.65007369,-7.39162814,0.19261692
-131.22004425,-194.56309920,0.18986201
30.26772499,-322.82667345,0.17114638
-231.61526495,406.37837939,0.24682099
74.11762105,125.37759629,0.16593388
-33.34074880,-18.96702189,0.27605450
46.21704857,-107.98670093,0.19004346
75.91065762,42.34195087,0.22265419
-23.60382558,-122.63637358,0.26434858
-30.67555137,-55.65803196,0.20166686
31.68747144,234.90134719,0.17961066
105.23244839,20.96097204,0.18802647
118.57636524,-112.93493334,0.20223914
59.83238713,293.64710145,0.20630658
67.11969151,-70.29428175,0.28151436
-44.83970285,344.16122742,0.28501819
140.44201589,-59.90363558,0.16617013
123.87608996,-124.73758832,0.21880617
-18.50403188,356.81194358,0.09658342
70.65700101,-302.65461922,0.21834163
-30.47220993,-52.18879055,0.15275353
-25.73024301,-236.65142898,0.18677979
-19.29681728,-58.49129808,0.03399484
40.10808049,-175.73706236,0.22216422
5.92005648,-320.18918300,0.18718517
-90.19091275,-100.26121927,0.12070275
57.35920250,-165.53027740,0.16821000
55.86288399,67.15203088,0.14857941
-203.10013806,282.73315686,0.16486849
49.35060257,-164.67040590,0.24466322
5.95950297,-28.75264150,0.15883826
215.53508672,67.73827911,0.18216225
184.01570177,60.54336444,0.22216958
-30.75911853,-51.28737940,0.23043919
8.72344333,65.91386707,0.21069266
30.09978388,-91.87191585,0.24505132
178.51715524,219.31183317,0.13841803
0.68598188,-444.25634155,0.18615013
-89.05234737,6.00581927,0.17169356
-121.30554913,-52.46979137,0.19810911
155.37255156,61.75709210,0.23362770
10.02791759,-154.48453538,0.15116771
34.45264179,-260.03862123,0.28473943
69.60078111,-244.96444526,0.20453868
-23.38121902,271.41769436,0.16139454
-117.61143210,40.35595646,0.25070265
-178.64170236,-189.11734214,0.13700730
-46.06372245,58.25498627,0.19956528
-76.38894340,-71.54824047,0.17857494
47.92313181,-91.34383084,0.18343379
86.27923278,-330.80316161,0.26053774
95.68412950,-166.99041405,0.20756212
23.97710386,-183.10834569,0.20795004
108.24100255,46.18768454,0.14979618
103.28229384,15.17194456,0.19446019
-117.23138954,-251.37482374,0.23476856
-109.87705938,-72.09429060,0.30092913
277.01638894,194.27295333,0.20731711
3.62389870,-119.63439258,0.23500495
-51.15053240,-27.06938148,0.16005091
-114.35554972,-231.71486211,0.29055944
83.36029692,-91.58379627,0.22819591
3.58707557,-328.67596247,0.15730678
70.45731085,-151.90485974,0.29419186
186.66901349,-121.21384946,0.11674525
90.53303014,-8.75768218,0.26603766
-85.62748286,206.35794697,0.25730498
95.33054226,-3.88515860,0.20166648
0.84377038,-224.23846602,0.27327191
43.56162258,-577.73695433,0.29062097
-1.68156523,-81.66351607,0.15721195
42.66518864,-63.58702508,0.25806130
156.53660002,162.36567862,0.13362129
207.77252182,444.93762439,0.23528594
18.18351322,-394.90167514,0.21663152
-166.75515780,-151.23903144,0.24190901
29.56023307,126.80974815,0.15808458
15.98339636,-123.59878030,0.17292446
27.37079744,364.18049050,0.17269037
-103.60877256,-526.18419962,0.16150714
-16.95876418,-181.77567129,0.28898694
-152.69136541,92.08833596,0.22648849
-117.62612701,-251.93190038,0.27034507
149.58650521,-119.74394985,0.18133909
-28.13064537,-87.37064284,0.19723179
38.46861854,-229.74599270,0.25593236
64.50685575,-174.34998777,0.19933986
-66.11835297,-261.83360046,0.16134637
-86.32520866,112.57747751,0.14554813
162.76033252,-209.82311832,0.20315556
14.56922812,105.98640595,0.23638713
34.72948051,-18.40228645,0.17062127
44.20217864,-164.51720261,0.20928004
65.06624948,-123.21400698,0.17579514
52.75148507,361.44904009,0.30673433
-11.01963594,-152.80249738,0.19094078
116.18831316,31.90223681,0.24333834
-214.22367267,4.85364140,0.27348960
223.38515875,304.43456928,0.33772984
63.75783510,-72.13469509,0.18598129
119.60921348,310.65396052,0.27933491
105.17962509,-191.36115514,0.21466337
29.64623543,282.91004026,0.22383810
36.70908603,-318.42460877,0.05681470
-146.40027349,106.00164507,0.21605947
41.94925711,212.73933816,0.21741762
-125.21245651,207.95658906,0.21187141
68.33093387,-78.23495625,0.14777362
-32.47766566,399.83647730,0.25236021
-21.22809314,-123.35629601,0.17558405
40.62938178,275.63475453,0.16368504
-135.89203867,-294.63409298,0.19342145
108.99184202,-202.44170209,0.22446847
-118.96122310,264.06053397,0.19405041
45.93666022,-437.69381000,0.16164652
-201.56448178,295.85470758,0.22356941
136.23105585,-140.40031166,0.17411181
77.43119577,-216.63112928,0.17355134
27.74051024,-139.11641551,0.20858580
21.26745586,51.89436752,0.24826465
5.78854485,225.67422923,0.25609757
-42.57421517,-254.95405475,0.23935695
-44.36226705,-573.09491458,0.19736127
-172.22405855,-93.12270992,0.20605754
144.24368908,129.69279767,0.15987358
83.59269669,-50.26459297,0.18880721
-43.96494026,236.17755364,0.23913973
77.77903690,-111.77242784,0.18521444
-21.51090953,-52.39816060,0.09867999
-55.49554537,139.92941709,0.18349369
73.78178919,-138.58894740,0.22291457
-85.38355750,0.70481018,0.24253172
21.48088676,294.18670154,0.27705092
125.89144454,149.54082780,0.13059947
-56.84055510,-48.76701836,0.30239843
-174.52012197,208.80443482,0.24985627
-52.80603527,-70.57498531,0.18249265
43.94922216,-50.92550798,0.24360618
-48.13758072,129.71078640,0.16164808
1.99002650,-396.93810550,0.21891913
55.31858611,3.00575282,0.19673952
43.57461587,79.53974513,0.15501361
-79.47949112,-334.22959474,0.18910443
-198.39725581,-3.65658902,0.21066142
81.62855756,-157.48424864,0.20223851
8.78110547,-254.39684142,0.13685371
3.82705107,391.49455024,0.19347413
184.55603567,78.67140683,0.18942161
-146.78500227,-90.48548488,0.19174507
-109.46177588,-87.47867765,0.17714064
83.72020326,-6.74058971,0.23528242
21.67741843,-118.39804320,0.26274648
264.06451299,26.76167992,0.16151226
179.36660560,236.01655803,0.11789982
-245.49150492,15.63964076,0.11673141
-192.01097780,-124.06819686,0.29043573
116.27846779,25.82963362,0.26209826
-73.12920640,-11.74004646,0.22806826
-37.72059508,39.84081084,0.24896507
-40.60308625,-211.19126499,0.24903628
-57.26214712,-119.81847280,0.17027602
20.41309271,-170.24519050,0.18207828
84.12917740,114.59464978,0.21603493
-170.16414957,-37.22047744,0.11186956
-92.69558077,-185.17816050,0.16191436
54.77829711,69.16094213,0.20158797
-241.21426369,-359.37876023,0.24039394
108.29800865,219.05553440,0.13314162
22.81691747,177.21697071,0.24734678
131.36399464,-99.21752636,0.16126977
-93.72388028,40.04185295,0.25493833
-38.70711492,-84.06257504,0.13597858
30.18929681,-256.72990286,0.23928547
-111.84924524,111.04734695,0.16116603
-98.33023845,-287.50291958,0.18586576
-161.26659314,-23.53165248,0.18275437
-69.69990927,79.19025523,0.20378073
-87.16517666,103.41056180,0.11905639
-12.06593997,-141.78825502,0.19313268
34.38815365,-78.97911094,0.19805175
-70.09323055,13.69817013,0.17853429
-87.75257791,241.21188895,0.09461678
116.17199415,316.27631972,0.12977590
196.06108952,-25.52217861,0.17597322
55.39768686,441.81424877,0.17458324
-153.19376524,-234.80014859,0.25903070
-12.80799867,-221.07194466,0.13355611
-24.31349256,-131.79190123,0.22805255
-20.36491129,-219.85559125,0.21002199
-7.66942576,348.53500364,0.25099318
-185.13644751,395.15269963,0.16394521
196.55894150,52.82312975,0.25612990
91.33943854,175.30025239,0.15913757
54.79845028,99.38309292,0.20074015
-126.06815770,307.20638103,0.28392046
185.46582020,-2.64475801,0.18768271
82.87931209,75.26250453,0.25268357
-90.66931893,-151.34929328,0.17662909
88.54257912,-20.11337890,0.19495401
-139.85621536,-92.39139440,0.18176416
56.06494320,111.64333280,0.09523243
-72.75937792,-185.54163978,0.12756270
145.20486988,-111.97687763,0.11720598
78.35272917,-113.33617131,0.19585254
88.74476945,76.87218695,0.16680614
-189.17100925,-255.77775662,0.29575634
-0.34132149,-37.28431080,0.18638292
68.54498860,-54.22626692,0.32469670
146.76233537,88.68772504,0.18885634
-71.54502946,156.93617606,0.09432998
62.20374543,147.73852271,0.19561639
147.04149531,-91.29502188,0.10082316
-65.04316204,-124.80511195,0.17000773
-1.81093030,-309.99576352,0.21134510
51.89171628,520.23597146,0.18802441
85.69182532,83.85236659,0.26086540
-78.06835834,-32.78256232,0.18788571
-55.09642669,-22.23671073,0.09481647
-69.15629985,170.57288722,0.22427364
27.46438769,238.16440519,0.19315339
-78.13881996,90.14826035,0.27571975
276.99133325,-19.09325869,0.14257992
-66.96351293,-207.51255448,0.24831616
26.43415095,148.04622551,0.29911553
33.73404009,21.39490463,0.17631422
-0.66801660,-94.37249878,0.24076093
126.68918627,114.93145299,0.22439374
186.51991022,-182.68476801,0.22941113
67.20031045,49.29118250,0.29981641
89.03156929,109.33700268,0.26862570
0.15291327,-224.21548007,0.16846746
219.28479363,-3.25400109,0.17365465
50.09509378,79.88297292,0.23757986
-119.27417381,-487.33670107,0.16999947
-62.17650068,290.30615984,0.20116630
46.21523732,-62.09070004,0.24199219
-112.04278885,-151.55615133,0.25540219
16.43097517,-145.08199281,0.25143080
170.67811891,176.61338249,0.23228291
145.14170065,-120.95053855,0.17139424
-50.37522798,-199.11634775,0.19162724
-59.44079169,-72.44865648,0.19207579
169.17487452,-342.91185512,0.23745223
81.11039825,491.83053208,0.15863056
61.80065804,-182.77741847,0.12064203
-117.19237923,-395.80021935,0.16654867
-155.16161739,-42.65425056,0.27708911
31.53494778,-172.70669403,0.16921474
-84.81600649,-55.27538534,0.14079003
25.02363341,11.07824235,0.17719202
-62.83667699,-73.70628840,0.25829798
82.30011389,98.17077994,0.19678072
-69.97636462,55.99818524,0.16165061
-8.02603174,8.51605409,0.20230164
48.33711449,-178.01645813,0.19151724
48.27066551,52.18510435,0.18026962
-4.20816020,-490.93534586,0.29166479
-158.94606732,-21.81793531,0.21430433
32.12771249,406.16064850,0.16408562
18.80365386,145.18193319,0.23740508
243.50972693,-158.90559174,0.22887184
30.53712392,403.20681143,0.22800303
27.56664160,138.44744474,0.13417027
0.15587628,-152.94769348,0.22735647
-75.59534829,109.41010356,0.21450679
34.12407418,-44.87703235,0.22683055
55.21721416,-205.94564246,0.16374217
45.98782354,-8.96520835,0.23929858
-184.85166241,253.88042685,0.25245164
80.46527032,-165.20307978,0.17854655
-99.55562435,204.07286107,0.25540193
-31.90480937,-12.01736039,0.22266690
-170.14712234,106.56232606,0.13513421
33.47985991,103.67822966,0.11962217
85.93087609,-39.53127433,0.24110884
149.81620870,-133.96343701,0.14974865
64.15591450,-13.09831872,0.14911378
-48.03825105,35.62774796,0.19969219
112.29130669,134.28183995,0.22667166
92.68833345,241.46577794,0.16204148
111.77766398,359.56942955,0.12178676
-83.56369359,-15.09019926,0.13234408
7.22431861,169.46290221,0.22239260
-54.40852760,-88.79989683,0.22013838
-106.66718137,2.46780793,0.19789505
-11.93655482,-465.72336232,0.18844413
-110.15744708,-54.20061437,0.25139387
-92.51741518,-65.33044746,0.16715670
-92.33464074,206.35546376,0.16298395
35.41491836,-245.87800770,0.11362960
102.36562941,-117.85454613,0.19378355
56.06984299,-218.72382145,0.18447076
41.28016319,-49.97125378,0.27458822
16.91467492,40.25539555,0.15973022
-82.07064311,-305.21519928,0.25811561
-47.20206492,219.79954651,0.09846831
163.13253659,97.71906882,0.25359478
90.91904818,113.71606480,0.19400081
-24.80503417,104.08582368,0.25694295
145.55656395,168.02420173,0.25411746
-149.32602007,-47.24580908,0.24387491
-24.62948959,100.90020877,0.20542023
-75.32422113,160.42488600,0.16738093
-91.61026569,140.06023047,0.27244519
88.02115644,31.56213098,0.18761656
-99.82623058,157.98358050,0.29587331
20.71291465,-80.07258480,0.26894955
-119.65477458,147.94266555,0.13527931
-146.31329102,37.47698399,0.10723893
246.37425698,-16.50507709,0.15038703
-25.47504841,93.33330694,0.13831129
9.62358008,78.36538188,0.20088278
0.68106261,-141.58750081,0.14381135
96.43981506,-230.99641343,0.15454967
-4.09584215,-152.08305855,0.24171818
112.38031155,-203.48295314,0.17536948
81.46183040,352.25907254,0.17402172
-105.53320890,7.85019843,0.15952594
-10.15242482,-418.80202960,0.22492642
281.58390961,155.80095352,0.13862407
-98.38396811,-320.51267391,0.18077824
-64.74114048,-81.01877872,0.17472079
20.92380889,375.20592781,0.21555447
-42.72289870,-43.61907538,0.15946330
-108.88208476,123.90549726,0.22222714
231.99742730,62.28463313,0.11682809
-132.29817059,293.71369301,0.14493133
62.96725044,-126.18382529,0.19538802
60.54430765,-190.66446056,0.17821306
63.30676129,121.44100168,0.14726515
-72.11594995,156.02816973,0.18491681
-34.83141802,33.52043003,0.17920273
-18.48248221,-157.69431769,0.15653011
-47.52522064,63.67142865,0.23375372
-99.21183605,147.20345510,0.17888472
73.62141598,-60.74367858,0.20879504
3.45486914,-35.63041583,0.22610070
24.82409044,-7.93387438,0.17174456
53.98966774,159.11871805,0.19368383
-48.07146733,-25.89281044,0.21284183
-40.29583381,145.34015623,0.23492805
34.45617366,-220.98808251,0.34992849
131.82399119,149.05571733,0.21175768
159.56557279,-55.36400416,0.21867281
92.51239016,190.00373192,0.21875102
-210.61373914,-382.74946438,0.28260924
72.27176386,-8.15789912,0.23322015
-81.62127135,147.24212709,0.23438061
113.16757910,-99.18748525,0.16169886
247.77956915,-78.72133426,0.17062126
-41.39002454,272.67936962,0.23388393
39.71657656,-311.97237884,0.16061283
-132.26916247,-59.56115675,0.21109658
-262.20008203,101.78991796,0.23719277
-61.75870966,69.92086460,0.20196191
-177.10150993,-14.04447511,0.20236629
79.80802895,516.63688329,0.19705629
70.23573885,169.75593681,0.23493693
6.11442542,63.15376462,0.21845777
191.85545027,4.36967260,0.15283430
-64.98837217,-201.88407347,0.14965256
-106.32195120,20.92833931,0.08316489
137.42095072,446.27670091,0.20263970
-148.44294212,205.49731543,0.21101601
-64.22408106,143.96875650,0.13339065
34.89228974,-200.74253710,0.20614017
-84.82666285,-341.77737305,0.06439863
-60.80150563,-122.57978071,0.15945943
25.18471562,223.80182945,0.15736821
-117.90405564,-518.94834980,0.13724716
-108.39513637,-72.30093928,0.14292510
-24.26089053,86.60950766,0.16192296
-88.11572817,-248.83599978,0.23418261
-20.14016964,134.53404483,0.18854189
-1.17200663,72.14231023,0.18951516
-164.79224113,153.98239555,0.22183902
-94.15547824,64.23062801,0.24478857
-100.05729365,-161.25697810,0.26365559
-2.93847890,84.84004427,0.32768488
-31.56701290,387.47821437,0.16846793
-58.80558674,22.47080396,0.23761864
19.13196736,7.90247026,0.30925785
-122.64222035,244.45617409,0.23080590
58.96166919,151.25646115,0.17382025
-55.03399990,-260.47395851,0.20802689
-143.50674777,204.85771123,0.20778668
-80.56295348,89.06636130,0.26458535
0.96118064,2.77060144,0.21008861
-138.30146044,39.58663989,0.22171610
86.66547317,260.51511820,0.17183281
36.85380956,-63.48338182,0.19724856
7.85610392,57.73050285,0.17368965
-109.28985802,89.18328453,0.23474347
-141.26433542,109.82208546,0.22044960
10.22260034,-232.34321570,0.12259543
107.78220479,-88.70434793,0.17741380
4.62312486,313.91976417,0.20853720
118.82547079,-49.07282162,0.18081445
-2.77455918,-196.47359683,0.15740061
-121.57396091,-403.19541283,0.22370615
9.97880838,303.27420197,0.27140770
-28.07092474,-153.60332288,0.12293876
67.18237275,-250.08257376,0.30329801
-38.40274542,220.79300630,0.12897730
-108.55497974,2.94599592,0.19227148
-50.58952520,84.73554150,0.21224169
-69.38987473,-148.12771725,0.26886365
-77.17169952,200.24452552,0.24977387
-22.89148149,-433.06854704,0.16003158
113.33437425,-153.43990653,0.26145953
141.64923383,-288.68868120,0.19265692
-20.73427187,-16.94558842,0.31873022
-69.99904412,-2.08427532,0.10748814
106.82306012,36.57051498,0.22344531
35.40882649,-183.87051027,0.21025414
-59.68081787,-164.81230918,0.25787082
-26.08477574,16.51854007,0.28709251
9.55516885,158.57754437,0.03421695
51.32402782,150.66620998,0.22833721
-178.11293168,108.32929958,0.13783191
124.60768583,-246.78904707,0.18702806
64.84245502,-17.70193199,0.18982800
-7.34401154,-350.17865817,0.12701014
