-0.0392519635918466,-53.224274779743574,158.4651718915083
0.031093498449697693,309.3413214099886,-92.88897363227608
0.009384020004210325,124.26092228425559,119.54137610803679
0.011411877016650347,-29.83077422962821,-115.04356637066986
0.07537981149817585,-217.83396526533494,282.38084793537524
-0.06821513812759271,162.47925980177413,-72.13760092175384
-0.040751154156388095,-603.9054170336628,34.463267416205625
-0.10581170040762432,103.8621620235827,-61.36235366972055
0.04875413642363692,-73.43528238675945,14.300398545578602
-0.04109042255222703,370.4612561099514,-12.567651808086177
-0.07010602508486628,216.4705817535429,109.15055243621251
0.048069498196780754,-179.7398012466793,-87.35993240523901
0.04020629094953801,10.994530241827642,-120.2820224914867
-0.028357461555758863,-59.3366464548203,-45.189188484914304
0.0020706491258342167,211.86894039064077,116.53280480451771
-0.013441401507211383,178.0765771282718,-320.98166947921374
0.005532179098200463,-215.46025565919643,27.1612763219323
-0.05808767426627531,327.6546494151349,231.32786712341255
-0.024525179929774658,-282.8454297666352,-12.722323757281737
-0.020770778367843752,203.86127876267489,64.51877862159779
-0.03362775293020481,-563.9510885054706,13.00509350164801
0.09659589081977449,279.6426736742242,-157.7494780523799
-0.04838236884897904,8.15051350515092,64.97011244734911
-0.0408772162338584,278.0401151028726,-59.01535315190517
-0.03210779959860868,5.362708930539041,13.802951341342585
0.04931077046441795,-115.89672871608308,5.30296966211516
-0.01241107140767804,191.43118671835933,80.63972146046657
0.02686651648863228,-274.1819325894606,47.56886811906822
-0.03584485393784438,196.5595616294407,37.74667143787716
0.07137370840112413,142.75767537239327,-8.269872012334108
-0.04904935508167313,-29.47903489941981,-59.727100386398455
0.07819121803049324,-257.3543532545028,14.774449174334336
0.011035522046078652,-148.04129187599995,93.9506209343227
0.0775319148271002,155.59650122468813,198.90560406514294
-0.009002236012067419,146.85101514097008,-5.429624742654184
-0.0010070669185841838,-33.415039008559646,-55.05034442020587
-0.045421508027892,-163.3623560796996,24.438902517505742
0.009216185572884209,-259.58954924824076,-10.771349209632321
-0.0038569443740119366,146.70350727771347,8.071050459991328
-0.004501672127585767,465.5211890154713,-150.11270132560296
-0.028527310543890058,11.140290191248404,-140.7852391113803
0.013610856131730926,268.1691164791042,-86.52434610692914
0.10560646333687168,132.40456879395992,60.900824780170325
-0.02985825587272889,-96.37232183357447,12.851736114460566
0.08451619588054317,-205.71746818550767,129.1734869851418
0.004256412010956475,-206.26177460695155,232.35165283949942
0.0037610378940529754,20.304366924278817,51.036331981200675
-0.02676113355748902,71.98303464694939,-56.048602164647335
0.027732321578958746,-66.8291640370877,-41.79994977332244
0.08542094265649766,141.98657117324856,95.7011463625135
-0.027151584224315052,-130.16952659785866,70.60065859955759
-0.12424992631061932,-360.0450440247203,-129.0922748757201
-0.010154870185783024,64.64741624339524,100.08042330705355
0.04439725831813392,-87.26865739315072,-90.46148667521723
0.03095918204331248,268.86589392721913,45.6312821480633
0.02036952616957304,141.65959528311643,23.80062601374885
-0.046816225916854866,-186.6069517053776,32.91734798362679
-0.0042375228638806195,-82.47305734396403,15.313124293723327
0.04040548140469508,352.499415349562,-17.973196976449263
0.0013250344729237471,352.6811663554906,-35.15005392874972
-0.021966397239591116,18.844137123992855,41.71737806601922
-0.004461070686846392,-208.32090645320304,12.373977364684356
0.03910533540029776,421.4899735456263,-137.3541673662122
-0.0235626210767797,-24.11160373330783,29.354726269195496
-0.035771308651521214,-105.67550314346535,93.19990185297048
-0.03639335641363249,-43.894525994354,-84.59639292948805
-0.031248669453997926,36.24727390881483,-82.11108922168967
0.08482922021085457,-161.02156423231065,176.0411589207207
-0.12029655058007648,21.106614654644183,25.221493342806077
0.06442052382474375,-125.25721595107643,-170.33389716921494
-0.010615699421716814,-150.03633384966744,93.58241584584772
0.031223742427372348,-16.553618505577518,-65.70915097920764
-0.013586546785648837,4.770542775458867,-115.39567319502541
0.07667150090330666,210.17140343032494,69.32459919969128
-0.027107654122199593,63.992465140952845,51.9349870478039
-0.004188587324838787,-62.82001715975589,-127.97818189403283
-0.028358926585985246,-53.87341445116143,4.929595043354598
0.00715220919376729,-15.84734538518,-133.48732128617922
-0.14404619338710148,132.58838984442042,37.215933244996734
-0.04153156108161048,-47.11125798126757,0.9276592003274785
-0.09701194069111445,42.8959223136902,-73.48915610919175
-0.03441693613438597,206.0634557162381,-19.03271751413084
-0.03566077955807518,-271.1955553783732,21.008274053061946
-0.05528912344214803,-79.0027570963908,-113.14651767564516
-0.062145814252140386,251.74248115872672,44.09076507478796
-0.03014313248316297,-272.5698399498923,-48.036449997999206
-0.01761790818621349,-74.7847823342816,-18.075676461112565
0.021558716376432648,193.62833825822236,43.73598155166861
0.020375694296785103,-103.75306579415857,-5.932311746849632
0.07506417446203104,110.66183211742901,30.84478614500202
-0.0004253030412356299,170.0080251205535,-98.38058557927883
0.11140730611572745,-85.81507282470416,-49.32006644501962
-0.016873994713919326,231.50231601442098,-113.5225372492602
-0.02619086025460332,150.60169755383066,105.09940841797412
0.04854694110011257,-235.66562519965734,-32.00306068064406
-0.04430305646110114,-121.35207308568565,195.4075763355529
-0.09471322386566736,-137.34607392238598,-130.81094966308333
0.09265308914321059,16.971063590605002,-134.41907381073196
-0.030542222340541055,-333.5289388885312,103.76958477568543
0.0063742169973823315,61.456111969400595,-107.92767160885246
0.0033762550345086463,-204.72759927169827,12.801055459299803
0.028491542250957798,-47.179106280633526,45.65695542807716
0.0012797996512298117,147.17690719523316,36.664501310241725
-0.00012829575392756678,95.94112946503333,375.7351264100548
0.025022014183780108,-100.60551529071233,45.13898291233868
-0.10189307588492702,-91.64701677108467,110.42149023060614
-0.023146095771735268,-32.5778642631019,14.888429720103755
-0.016817621360477663,-286.5717449691164,28.0963953524001
-0.004776857187900724,36.15775838224935,-192.21451487024322
-0.028286853502364914,-50.27022997484688,-121.64634786073812
-0.09241227949038719,-105.7181166989722,-22.022317056337677
0.0199096388022864,-269.4150380728872,-174.36691862907358
-0.05656675808455282,-197.66360547832986,-176.91237518378827
0.004954088096171379,278.668953200756,37.680670325573814
-0.019212662220152603,8.359185727517648,-1.3483880378484672
-0.041923849861913755,54.891100683670324,-6.937166231623185
0.04735662014974448,309.7886206084383,-23.177281997516587
-0.0624538701661146,-90.66519946010303,-193.78148001191533
0.08229831344157278,320.91104310264205,96.68667797983215
-0.033725754776701956,-83.13520610139453,-67.73139400094608
-0.023712394300187414,-141.51673436530078,-58.31780110023516
-0.024920237184076734,-125.56290482921592,-40.28729591140919
0.06504499878297708,-254.58206308925827,-199.15268384470298
-0.030044004992240133,82.90566654705255,190.38495536074845
0.011166855863551218,15.836613412451811,-75.12333056583095
-0.0359608031134979,3.619078691745182,-72.72256003365933
-0.030454099359539917,296.22906579392287,0.6149019566095986
0.06724555139065873,12.64846839078001,12.179344919748145
-0.014052947512274747,-216.64429658867766,-3.436912219944916
0.08896843536879918,-305.70354927743466,109.4347098840214
0.04174028531153515,170.0279243978863,-140.71107803593833
0.024600033256311642,2.6994455120634897,-5.82413431389906
-0.06568696102196885,116.08233782882596,-72.98605664173921
0.10916468791032341,-240.10914709414982,-21.001561728318038
-0.08412999991595752,364.0739487245797,22.7802003965464
-0.02319499317871903,273.78436432088324,7.995944305247411
0.03201507020720112,170.9610888886693,-84.03040481859506
-0.01151740725772562,-106.07889055250095,-153.31366494282707
0.018079314762687624,-123.63916833219675,-81.60358271693228
-0.07924882408654813,61.510155680280555,-16.215301350347968
0.00698558954821662,-316.63038335456076,-4.986363844497546
-0.01522156615848219,182.93333090902237,21.43957671632677
-0.020974306332663756,-61.194666684316005,232.07037507863663
0.09149445475151617,-351.1181033349307,191.8683336796479
0.011599115928538285,-77.87603705957297,6.482955769770974
-0.00884306826699567,412.88471981856515,-214.13306965773288
-0.05181832592056748,263.21476589770094,48.44405132949558
-0.04718035703172678,-30.44196479296013,128.2154035201462
-0.019994794971761144,-75.28771142773117,13.141357047844846
-0.06408160967141861,21.67934979551522,-73.96555923533118
-0.008532185320196619,143.32662421643514,-190.22591571744724
-0.032729260748012655,-47.6643733385858,113.70180004962936
0.06107015323846015,-135.95937734750052,149.40947570593593
-0.042538731148922475,68.50470411300546,103.95551601454807
0.015514239666272203,-227.8386122072461,45.375368699528636
-0.02714485676615166,-17.51803936779501,9.112725112347723
0.06039298327599039,204.32858487451355,126.27818210075496
-0.0031440157155523257,138.1923866073324,-25.79705480724885
0.014003496519580966,33.135961569890746,-86.19552661319536
-0.025202171217204514,190.9428266238453,-2.5939049760959167
0.03063056517055135,125.19228635346249,-67.74629936274378
0.040416505513616,264.01003251387755,81.36908049795076
0.049174851401842516,281.42827500829327,135.01761046308286
-0.028170153599495148,165.81782518105896,-80.33836588631517
-0.05561998415607361,-303.2198102780266,-251.09959302768976
-0.02682034453467906,192.6064040587288,204.45086666390128
0.06895551110271778,-364.9293877874997,118.94758300207616
0.02660401757302007,216.77465874555097,-140.46916254854887
-0.011227419091654891,-201.57624567917372,-9.666766873586278
-0.029643832264667602,44.64936139040804,-228.34866689090302
0.03675380049806941,-259.9001731620183,-123.56129849881643
0.005750316483618356,-141.19105012035885,-24.085527402578045
-0.05144760861471603,-156.01421190293684,0.5452532531139347
-0.06765169830326505,-175.0908549232813,-19.970064380648537
0.06433810098241613,-40.760861347391916,27.067194226260767
-0.048228864664058735,65.94510434012493,-113.1041859071909
-0.01847252801085914,30.27170471064164,67.6536388052707
0.025397934138560875,39.77515260015079,69.96609224685616
-0.015612894271481288,114.37139655137094,123.90955136508914
-0.07021676159090028,-322.8588209291158,-66.28492695253664
-0.06777440558391787,-203.85088474527006,-45.1021179060556
-0.00929337377151813,-138.76532803869114,-18.511078056600063
-0.004161827963509706,-69.75808436440344,110.79884369354606
0.0009584554704102455,-261.8568486853612,-44.48973827895462
-0.13829153273875688,373.9316270871962,-131.62731213887287
-0.07313398973997291,107.6233141419753,4.094728949421122
-0.0020272613545145968,-210.59313418803728,-197.96779134169228
-0.007614203310407386,-161.1337028940974,-121.71170990785495
0.039898012752928536,117.76762462094608,-30.97797990940287
0.023419603581505744,53.575281221959656,20.732068623284448
-0.033301851361791215,578.1081500210821,-178.62068497963764
-0.033853319453594204,-0.1432852407921683,86.52881704077117
0.007511953024890234,22.899366594226578,70.21392136665496
-0.038144594073511236,-166.90383168133076,60.22075140654246
0.030346306899539512,-232.7730706843059,35.678130863613156
0.002492333661291476,-477.99076720921187,-13.98225449999557
0.030530509628061416,-51.51458366015639,34.301056124124244
0.006285585333333405,33.016851467451474,-21.599306380900185
-0.0021447716791296286,-179.3980209579466,133.91899815537587
0.051099049334526504,-67.73463268344648,11.74174846456173
-0.01134706941425747,-81.62670996961334,69.92351900264705
-0.02957082166684479,77.59086715140322,22.13806134534507
-0.021510050786335295,-39.42648202529993,11.266052130145503
-0.05522321420110348,195.11588708322822,63.31806091869816
0.04984622248853557,-499.1589499155975,-188.5465583619659
-0.11978618422835703,-134.717728047349,174.96261972658
0.023767158140608206,38.561763874723646,-29.415981121893587
-0.11181542033466894,89.01798945385286,-42.771345067584775
0.050130887942191386,217.9985332668418,-34.90260683910912
0.026332721890919876,-102.31195201063802,17.250470921121245
0.09835256119061705,194.39724996733725,252.0370309138163
0.061390236329124805,78.44687282094374,79.74193094409532
-0.0309803086300533,-232.0429456237789,-26.54377644565707
-0.033697486621631405,-270.17273683239995,146.86339562820515
-0.032229912333171705,-64.4039784888584,-81.05768262141912
-0.052357033949903965,-19.738298913124567,-310.3214052885693
0.03558815953954007,208.74628502640275,136.40812561996108
0.0259780554028234,124.28308417414513,-55.371374805823834
-0.0693400524741905,229.826333060826,73.14624290343639
0.02982428724030933,452.2102073688973,129.87168932877594
0.02351969639994693,257.97047116833176,-40.27318615640457
-0.010853759528250802,-151.8583097798074,38.37586749389833
0.0444999907071075,-216.55047337384195,52.687738388317044
-0.017600781728565315,27.06221488171132,-125.6388725658802
0.03328867156274742,-12.703954265801334,-86.97595144538384
-0.007542682157929147,-370.1417192441125,-130.3706819867617
0.049890072493085295,-74.8064791145341,-14.504222581388632
0.0579138458287155,178.11690251395567,248.98853905355622
-0.0373364219122102,-49.526310433452984,165.26637843768728
0.0031886366727141772,27.910669324882072,49.05435164502253
0.05672369866267566,140.82529207634545,-7.319835127326908
0.015292739519105312,37.04099981918439,-53.632151718163314
0.01139007494460521,222.7209986202052,-84.17325883650821
0.026080666789371255,487.24779941663235,150.9596222469135
-0.00791604252798536,39.68874587936676,30.900324339003866
0.012281537736649082,-205.50377149091176,-168.73404678861178
-0.020153520730254545,289.68252840742997,-48.22839491660726
0.09484438794646527,-35.38757436677927,-76.94772333115503
0.04492731791493594,-329.03515392895423,-2.354188778096196
-0.031245040079448772,-173.7821124276272,-199.28711798032293
0.09300445409572007,345.1979381624646,217.8323112254717
-0.0068512613216475116,124.11625022866717,30.34147896756545
0.03734430814989843,138.92494912023955,-13.275191201923683
0.02741275376212477,-228.35462224830755,-92.21877990062615
-0.041268228721697026,200.50286484752496,-190.47973581531653
-0.0006122791704292479,496.58167765473377,26.24324995659979
-0.02231572221307857,80.86911852873033,-108.29973540594702
-0.03419295155824433,-56.18840119477824,-69.6971173136229
0.05688458819137057,-56.01330337889042,52.509240987851705
-0.01998992112990668,42.193226021971796,-0.1798928543353139
-0.04888033471180587,275.8358481716568,-86.67846832059473
-0.04467140706040192,61.269936237512425,-52.42470362653625
0.007540023662540441,115.51311553922874,-58.03198768343133
-0.1171217411622288,-372.0636862042005,-18.44817968584536
0.06759274366908136,-135.3141683955836,-104.57094002404372
0.029815115085483103,59.14628858203229,-54.13183319425704
-0.040581757544324255,-217.32967633888737,84.69252941531347
-0.026591572922861424,-217.31444550963488,19.086657113896838
0.008194332821623995,87.71803491694871,-195.9767161403011
0.026474510915933613,-154.30951789050113,82.79260938927719
-0.06986657178536396,201.27164207837467,-1.458033415524132
-0.033138686462871644,-521.2045659993468,-19.50879542464425
0.016094964898323683,-145.4309085453381,-133.12264229955508
-0.02601307795300638,-103.78872572349178,-141.2326810481367
0.06294556478217593,-232.65677222414914,-175.609255533414
0.015803673786192143,216.99696012089066,-158.85295348303882
0.021233226275858042,-350.1888005688878,-144.74903859068064
-0.05727113164969131,144.30607048897863,-182.0364302532789
-0.012736432178982723,226.72644903195115,-99.65898731744801
-0.009334276436910916,-33.23333571914864,15.583560978501046
-0.010305897970829795,86.18381632224792,49.87803422775466
0.05128809420686491,213.90593054165294,67.00612659015647
0.009812948709232024,-10.971072499683412,-34.70156322233745
0.08443544866873116,-104.91408714503932,-13.603866386497412
0.06673866151326448,-93.49901885801113,-31.465133390672467
0.040126061013480804,117.64982849452844,-25.13475058255093
0.018074992071071078,397.6129125203505,34.530445127925056
0.01644073374629112,-15.992649961586725,62.126995001492155
-0.03010110152275497,-42.09478814683911,-16.52388712579398
0.029940891186717028,-179.6287044640125,-12.647491433591465
-0.0983803658711668,-185.94378733450068,110.91884836745642
-0.02430606188157729,-359.09691155063086,-81.71085691068892
0.08563838719972744,-92.96959553577643,118.18100698789856
0.042363875732616185,235.68997515297067,-189.27983542098048
0.09581319838618385,170.71852406933502,17.071192462561843
-0.048986752123865225,1.8098478947606609,-122.63700639191073
-0.017049047356856875,8.741132224690947,46.66277316351644
0.01132716416163654,87.70237560557732,131.46753020434178
0.09682256807075945,-58.56668509020777,37.849867967548704
-0.036807056320364136,-101.74141144917374,37.75481298483742
-0.023165691224311027,-234.36527648783766,-43.378976518212845
0.08984406542187656,85.13844649626851,-39.34805211904798
0.033348675685352304,-386.03572019826527,116.80031557996047
-0.02148000697913986,38.56892553975682,106.12591128948792
0.0123119450345328,147.39435581364026,78.57882601287565
-0.060003331507980984,229.81146681509554,-149.3773879835026
-0.03250349868647221,-10.84596182336348,-42.24274757282273
0.0002530464661839812,-23.028904131780386,-0.7821857571037881
0.04789568857245987,180.50638179398126,182.94842471670486
-0.063996287481093,-223.69715818555832,74.89099790759245
-0.0058435623004738126,9.2160685349731,-148.172035316975
0.06787140054775073,-377.45601502523766,21.452403354938415
-0.044460022791667275,150.00732460773014,54.60216004765655
-0.05263312569608071,-76.3154457301973,89.5258272549506
0.1084915405770361,171.33884931967503,-13.874840440615383
0.048327643196141995,117.01298859512208,-146.70376677203703
-0.01142216896883713,113.5860518746101,-73.7856630998159
-0.0376571710207132,-73.16997775490104,176.28174333813314
-0.03538386206239875,-84.07075210919281,-5.2810426191619175
-0.027513675866996837,91.79033581826872,145.8166734012807
-0.0427288850137009,-46.01178680395287,109.30720183576985
-0.06962109124941829,-116.0472018439671,-129.86714085062124
0.003103790278662195,-192.09429345929897,-21.66152260513166
0.08051442097072181,269.4623459276839,-56.46988314734982
-0.053159225983284875,28.42812062138546,88.86139638762049
-0.08309697976043917,-50.21774346024191,19.93063077318107
0.060699647743082424,-64.26984566624758,19.249293226288046
-0.005540129768249788,224.50763250704858,200.6999844667855
-0.05939104245553609,-223.69603182497104,158.2507630284166
0.023010181912151127,-153.6952099535648,51.91291477330068
-0.014690709642622783,-3.021578241359209,100.716149471393
0.03779185418846303,-375.0257295781835,176.57188014521537
-0.0457064590416914,-538.6456551975454,156.01469028560228
0.04241444338653593,145.90022999000655,-64.52342235517784
0.022320582564819128,98.2021226985969,-50.495746316645416
-0.08002244732246877,-14.647378205395317,-246.41488195826304
-0.05583935307008728,-63.41254476680647,-20.797784699669403
0.06585811913546422,-318.31680868513837,-59.08298176313402
-0.016797735607260358,144.0329298631454,106.00742836232658
-0.012992691799764953,94.0284796190301,94.85084883359903
0.008914767055338722,-40.96573915949796,-23.959313370059036
0.05250345936000072,-665.5892961315426,-92.43644469651119
-0.02683315621230254,308.03669352760903,67.2130382928881
0.006566298626622069,-22.047625641841783,-107.73260197495142
-0.06242344622176832,-175.54275685586146,3.908969551768765
0.06547977672547811,-54.413515148054636,40.35410500765862
-0.00978968744477676,-129.10577293276435,12.779485122331641
0.06373479465313653,17.579564218543357,91.66246255503661
0.09670686471674877,-150.95012074661557,7.085331507590871
-0.02807345891903279,183.30204522404753,-152.37772770075694
-0.005303009657885091,-46.087777172328934,-16.974787935559167
-0.009363778935706963,-311.85584999617635,26.041525279128088
0.01443708644176329,52.99300593395137,79.63256811051093
-0.07670891075740838,524.717204668309,-105.73446390320073
-0.024564449165373772,38.26877354854873,39.69791152109315
-0.10608799210414765,-161.6792288232076,-175.91248397284767
-0.05277512275523253,-304.35198794768223,9.988553453714587
-0.012222829785515027,-138.69098373901286,-128.29789814025276
0.024682909244727325,5.133244144286064,46.47241771194457
-0.002116101068166624,-374.6504799679844,82.7677455844214
0.0005970989212483952,-422.62046628699534,-130.66926701168714
0.03509502060497777,59.414137721926686,100.67460337906829
0.007996702736282616,7.666074457885391,143.76610408999423
-0.04355403202656705,43.35174325176399,-8.556814207328326
0.0316809298929327,-158.62123276407652,176.51599134900232
-0.06174784248570454,10.128874109324936,-123.92530199096763
0.0758562859280919,-391.6986623265362,78.5153506126548
0.047470662826158444,313.8482802555462,-87.6615433688841
-0.098456528173573,-77.87561551714877,29.707982152772484
-0.047949248042665926,116.3473994610383,51.60990919129712
-0.05172026973144905,-38.168420265615865,97.45611974724446
-0.023496056368126253,-352.5290937856194,-73.06873329634423
-0.014709446607515615,99.52704663062734,-50.705971742548236
-0.034571273247076935,25.84020772015796,61.62063060908659
-0.07986847188078897,-65.00088869516965,15.456606038977288
0.07760051231491145,-308.3087168915673,-128.03389971482696
0.041059193675377234,-47.781603320400166,-93.40230089503663
0.037756294963578296,-569.5372395068297,18.542884823781375
-0.013010887288044679,165.35013569522437,-100.83378532328766
-0.04881965555711096,283.4872100108877,-121.36659139836252
0.03666415946780863,111.08404056071599,174.5769081184259
0.011557630453347569,-170.954612569688,191.18802773613714
0.051361564754529715,-1.6200113838748624,76.24618301379634
-0.030990221694578126,-339.2582264360668,15.614168919864838
-0.032931280539420786,88.64362301177977,-33.93228100398368
-0.0783351292816701,66.24452348583621,-49.29894656748948
-0.025487505011074454,53.590890831981966,-155.23249382808996
0.01689157229538382,155.18494106646438,-25.56730614924193
-0.043918368776573874,22.02149448917507,-155.18058630014713
0.04027871487445704,-39.61471825340913,159.1099065524198
-0.0346362878311763,118.02436836007956,-119.70950825979956
-0.06482490367516801,142.00129206714524,-109.1269222042974
-0.04799590248316924,0.3291988315819705,141.6215838911838
-0.048211193821465256,-124.02313076391603,32.61025962333633
-0.007836483016845074,-404.72906597897486,137.7588400218347
0.00841042250799521,23.988901111686157,39.609452328685016
0.04297866715852125,232.78858589493208,87.13592247972713
-0.04397344483226188,318.2494357349761,13.756089033563454
-0.005921000147218847,-169.72270916359005,-38.98627633171952
-0.0023579998829874327,-104.00354446859494,-198.07595625132905
-0.0161945360168867,-34.73826811566835,-32.71613109410447
0.030889590438813643,-193.25935702874716,-26.1538417410376
0.01053945338915709,171.42689725732882,146.95247836483648
0.01729790827610208,-64.95734497206084,-47.46504204859528
-0.0033315438168331386,52.85122146487413,10.511704714163725
-0.02556715729370166,-452.6829548783659,-0.03585505356395795
-0.05781983048093765,-340.7598185675583,120.89952247855808
0.014069025208790283,86.853650274375,-73.64903173835243
-0.0011788989916581667,233.27356567166328,-122.81266052422124
0.02447859386210605,53.83082067028388,-167.68267480766147
-0.08501393103277904,-124.07216877005331,-76.49379601270152
-0.0046059758790814925,-272.28748494061983,109.96278381626949
0.0002041653846542927,-242.74706338868387,-55.39814226361449
-0.09557261809079967,-135.70106856344535,49.39000208954255
0.10328906878308107,466.9353292665998,-39.39296655009819
0.06922022339701236,170.2794539487798,2.053587352899697
-0.08179797507825856,-267.07741686268923,-91.29759284818184
0.029350368555158636,-190.6118481925191,-47.12672020491011
0.006376298303880908,-94.62409757948237,-67.44717146814256
-0.020813429530424154,237.89395567406228,36.42284482754934
0.06820138815482117,286.9343490923492,154.50848700892095
0.013596171434157246,-146.83817400269717,41.39161413857271
0.07231866756304303,56.027002285681824,104.49652469807434
0.015463945703323307,125.99596850006402,-142.1381282701728
-0.012846068422747074,-37.7466475942105,-55.306940030951225
0.10692122037775398,-218.9075164064131,-95.07150435389752
-0.045175537727222846,171.38288362922464,0.25389393541018324
-0.002892211187678273,-139.7538187567237,-85.28819349266466
-0.01868729429902738,43.22865465105968,-28.739825743954235
-0.012495125663917651,-67.16811929946675,-15.083067321581572
-0.031712543658015756,-138.5328024796128,35.446786157204144
-0.018644378066600072,-17.310030263112868,15.712963060724263
-0.05679398358248679,-373.3808591590262,-126.52748408424443
-0.07603983643411004,-348.27956428451813,193.94828632990502
0.04621981493591528,-142.69233696915333,-34.47706232721094
0.024038901301440884,364.5009949267665,11.319672513200663
-0.03941123318632369,208.5629154692636,106.25645718614669
0.0794542523446295,81.16850998359976,73.93148467980532
-0.09068460245238485,-33.52910902315563,-48.38144087749445
-0.022829110728528175,-388.38481938620833,181.18403582349012
0.009397148293032129,-165.54307914208601,6.048036887926883
0.022803285061835,-159.88671873761814,-68.18490092174785
-0.08334193017715943,-330.5866011388747,-75.88923611665017
0.07290674760685222,18.70748067726212,253.47060667934386
-0.0686299501991392,-209.12821212916018,76.820620476524
0.014255121084636599,144.11336799315163,-85.3036813678615
-0.03144091133498062,121.68786621578327,93.60278358719782
0.006193985678731409,-1.8471415946887635,-112.69684337981339
0.014692189908741668,-178.82819069341335,74.49436348516339
-0.013388361382860193,-56.55943367803544,111.81890108787442
-0.07005019253900141,127.31282282729244,37.78148258173841
-0.09753113785478022,213.90061678022926,-12.755860068634156
0.062176884078784335,-137.6426312643242,-53.70860043248998
-0.09497012318627718,-60.12146535789642,-128.06716865564601
0.01578145887344654,-362.17265592671225,14.91351051554898
0.046025530097681365,-22.969497054528983,-35.919187593042246
-0.0005768792412401228,-65.02658403914305,5.865445223172959
0.012616743550633733,152.28512606882785,44.88819177073593
0.008805668504613924,111.25152427446999,-113.64326779140923
0.07262794994012872,35.79873579085592,-84.53023663949512
0.09437489244583766,-138.5441048888586,-94.03622313565496
-0.054227316999296116,-212.9635024932139,67.29073090174018
0.020243379954637243,-41.3831455308304,176.76761755203253
-0.01760905304164212,125.55810778326668,-110.06946372797172
0.021942894543602758,-101.25591200003107,-91.85825116291257
-0.024551871021544172,24.76793806440998,-54.99052873190108
-0.034871052867748935,-171.29829185435645,109.78541471107204
-0.029789887410893112,-107.07862836284991,42.64143853853339
-0.053614532747990495,472.3265404698405,-14.603523620840111
0.03072572036546143,322.4211417978428,-150.63512567452258
-0.015563028102737212,-298.7439077879733,-49.1045623826204
-0.017491386028175515,164.2216045574885,-142.59339980315627
0.06097559299186395,-215.48833860394993,-7.39292462682174
-0.004014483805503,31.82537976280638,-88.06819316631365
-0.008381837897662217,-88.13376819973169,-6.429707802137225
-0.07841394117029454,59.521394552884225,45.85331287602265
-0.0011070970291939515,-300.00297606100423,47.32926128758936
-0.03224493451616991,210.35617473282824,-176.23166869284117
-0.028705846027015855,-199.28252413173828,24.774354787337145
0.0008555424845024733,161.66451101306046,-123.36213136290475
-0.038988237017066274,-62.00260095348445,-30.042103380356842
0.03212898318737524,135.19664355438513,136.80953593690032
0.05400904546079262,-272.70353159565053,-127.88470241684304
-0.05523898667197581,-21.30540195606193,-3.309479960567235
0.07878007210393034,-128.22997955527148,-150.44943693650023
0.008611939763837829,163.78906032774293,81.43895049014529
-0.0005142558161086068,29.89072909761058,-244.65033230828953
-0.03455245386556973,-27.368264636763467,-213.99485415326868
0.04436952378193967,96.49174801149647,111.97128558877856
0.05102838017092141,-0.2522940990079134,159.08439024201925
-0.028947529682928533,-183.44072949496365,-165.29988170004748
0.04032246651670662,529.2919429296774,-7.8133312731083215
0.048265563390078314,-55.071713070901986,-33.337032484862384
-0.04155185337364536,386.26555278523557,3.7915003570349493
-0.03497556913232211,186.19449981563014,201.2474773517033
-0.09502752298271477,-87.5643737268667,157.68338640559747
-0.0006398850603067415,200.17737430049044,150.71595680399292
-0.03112013952329859,86.19167287471609,67.21802991469634
0.049243403149355366,187.4094506304536,120.99365939294428
-0.038276962926566044,26.359145761093362,-79.39045219254001
-0.03865619238127496,-196.18199403319522,8.625544864396366
0.008166750172560496,-111.61588011199714,-99.20905928328875
0.01264581043723488,254.84939413114552,-87.34075055734044
-0.042167041994384785,-174.45021049465814,109.18200628863168
-0.017302161613500337,80.38970370232643,-2.2084734432538053
-0.03402812326263002,351.67169449946954,44.1663187413725
0.021041313086370687,-72.93178614882895,-132.74026880909162
-0.03172251693354274,46.86019043820973,153.52380856039832
-0.0034193821774192636,-224.26542861218715,-70.48142228031038
0.13699856805927077,-55.063344778970915,47.946286526828615
0.03348785634546228,-13.631028960658012,-204.9600735353442
0.03958816714462404,-308.7094938141149,180.80953035560674
0.06399647776029083,208.34322072637818,-54.17153761051195
0.048287262176651954,-6.869844307722382,-75.83695334297275
-0.03403227285676024,85.1167874722276,-145.00018456060178
-0.06940184109326963,-52.13029757271489,-60.508979166683915
-0.07302180805953656,316.54170548931637,163.3184487698103
-0.07163662825962372,-320.689007408883,86.27856004310891
0.02034340737553173,8.280616080406308,0.19820852858805274
0.035839571578360714,-113.76956209639022,8.948568344462329
0.04171556494206283,16.628770327490937,-39.9656822121913
-0.07026359955636154,252.60522360041233,-235.91090429561382
0.010930473261430193,70.26083589962585,-29.884926017942583
-0.08138324613880651,333.8267514735371,131.9199333306194
0.07439982869208916,-111.4689532939116,57.27784360458943
0.03686599047622412,-286.9977134623237,59.386910688021885
-0.024808697220887656,-95.78105741043805,29.080339643277824
0.013509002638431697,313.14986911934255,-71.81183799286353
-0.01788809760171944,-117.36072760842451,-93.79540789256713
-0.04643300512370745,-42.45598223808166,59.189242250954244
-0.025833468523333864,319.71565921420495,-95.49565498522719
0.024152893147711317,135.0305134653777,-37.18387806237243
-0.0029794087905137437,503.62727155377377,-2.9604592618423275
-0.09322675217859319,-4.7815250631262725,-61.63055501356006
0.01443898323671585,170.45118552418535,99.83859180948933
0.01656559718538537,-44.758507575881914,13.413608559368665
0.04748395163216629,-308.2624475758383,-58.01613804819604
0.024966360011066842,-89.17155994193521,39.33781326125459
0.08199365594895203,-38.90981634244649,-154.42723285263332
0.014567635501812608,-61.89035077980779,136.76162567381556
0.02849875030014012,70.50756333737309,70.47773582604448
-0.02886202930216297,188.0463658837609,-45.0274958875049
0.044349052992964794,273.70580979411784,81.7156998570593
-0.06778834316250175,-11.225145721483806,20.167041941662838
0.02014853313420657,36.53598340228155,37.28864868295678
0.016012219335425463,86.55406895714778,71.42798147597735
-0.005879457087380371,55.3512904602395,22.341808802693492
-0.05729139896610344,91.18453755314967,42.72409515265628
0.026193816646995296,-25.344347606006636,54.73920862964332
-0.049164791915769,4.891023354618778,55.88525371653928
-0.03875738819745041,394.0092861773083,33.83443835970992
-0.043621236599288106,345.5959662950557,-10.70687153802183
-0.04204797706439184,107.98981081895649,137.47266029174392
-0.01002661504437676,-60.77799605199419,-60.178637247560204
-0.010413210559769433,344.8995650010028,-27.427567885386978
0.03713990610587376,-192.13857353974635,48.40306119345759
-0.011817630514096187,170.3381741998832,-54.9843723273436
0.05281319766202041,260.24459721355686,87.24196811797866
-0.06359413555682207,-222.61078533137842,-32.10747168066065
0.04975967208487338,59.44753295102433,-40.70522148411378
-0.045996259542591275,-116.48131495046101,91.51658671134278
-0.019765510047479784,38.1067293753687,14.810284925221742
-0.013071080323438176,-168.8586542922438,-106.07019093199408
0.011743349285912402,-13.841604934099106,-85.7456105264743
-0.029764162638964226,130.76852836083611,-51.3975663212662
-0.0343096276896283,-74.23414234520249,-28.015532325109643
-0.021182950201764462,-335.3981816798077,-126.04417632038005
0.06681737803490906,-217.538380144592,-78.82925807731168
-0.07105023339767438,-211.10770183596333,18.425218240981522
0.10787673376043046,204.2951523193515,-120.05398027983097
-0.012484114779030952,-67.42620334796933,276.82503722091496
-0.031932127652692856,-134.94204705890778,-104.33935718334995
-0.010808063673025255,66.43006485124451,11.980079577118886
-0.058401712131786576,-162.66515620539303,-193.73963843796258
-0.060627944557829175,-73.531430892125,-38.271608299748685
0.055446959758705484,-92.41033053972991,-161.92319028578314
0.06767523196316404,196.58574677023083,-15.166486759699852
0.016080033841827053,-600.3688526343091,-67.23994760643018
-0.017412285620500133,-56.753732928892816,-31.39801157929163
0.03575261864605477,-140.0578916825585,15.951092577052334
0.03054719469534696,-152.89561761681796,38.96930320166197
0.07205577395712183,348.5935086074217,18.057019007579427
-0.02966906336296817,-262.8566386193791,-108.15184354408044
0.0094952859549473,-249.84230886280744,11.867955531548583
-0.005600453282191334,-126.07563112741951,-30.74734585267514
-0.0440841202483855,289.3766443486878,209.23167013962177
-0.05359602155103515,-79.99353706428322,-19.75073660206742
0.09384153465941403,154.6741815744545,-140.87153133205368
-0.06324931882231681,158.2405741132313,-13.578488943871275
0.15034745361394297,14.070766581255517,92.68212578993862
-0.002326856510982723,-312.3929686259878,54.07995604199714
0.004636534924343415,199.6582241530537,-93.27020408270793
0.11870255809750983,-100.54838350711725,38.167882944044
-0.006857678890788198,-254.02945069399942,111.55502461722648
-0.049153662350739535,324.8229595386463,-73.55000333628631
0.045202757266297494,165.82463930998077,14.994174447727751
0.054635799800172316,345.332206389527,153.85186577849674
0.004384637192597926,152.53776569174528,-114.47018694282905
0.07667840441919727,-148.8307452701597,-320.9041306124912
-0.012344487217847241,114.01697760946364,-4.894206944568948
-0.056643482094379506,140.24653979811,28.262919733285983
0.05231164453586884,-247.11834846626647,22.179871074194175
-0.06354808221022082,21.326046238600934,-189.55133918073602
-0.0052625522368321825,-82.19848924671413,-161.2434591162004
0.053223846476947216,192.17076261293022,119.24722714027678
0.007278032224990874,-462.2491963141824,70.52172898158199
0.08358344030775754,-361.3996089280442,201.20451647104335
-0.046791519281347005,214.77216136149872,-60.37135316495369
-0.04194281722059662,-29.888834183890715,100.70370017003512
-0.09831362437945444,195.32430984736914,-64.69123554677121
0.05857713365587467,398.8413780173146,-54.92216093177049
-0.016369505954197918,235.31025279338783,95.53027282974517
0.04406522112421804,120.70228353508672,8.865521240782543
-0.024650225542486873,108.11664485916633,16.46616166198168
0.011066757029017996,62.456270783605106,3.2352764189485357
0.0717310392170761,-318.47829683519154,250.0616710702075
-0.05314085714434187,146.98928829920558,-56.533972294121625
0.00347399685335024,419.62593510277645,-97.0677198732003
0.0595886613903491,-136.80290427982914,-135.9460294705452
-0.05496338370662327,37.44876372920111,-36.18314984408643
0.09484267334602427,-13.409778283640764,-84.16516305822496
0.03598195694763656,59.12051385680949,-63.29052747618783
0.025008059157138104,21.670693324286002,-56.79742969224871
-0.06849505900197758,24.259564391486364,-73.35776246661987
0.03536192099380718,68.62078728863136,-78.25703788588106
0.031268963215335246,47.62079087520104,35.741376182577554
0.046586020487601486,-86.75833243274857,-88.73671524038991
-0.035250882228895275,-395.28021840470586,47.06009222437392
-0.04946653754007051,-393.14636887708394,102.00780465948415
-0.038873594335276235,-6.817931126084911,35.577995451934264
0.0869358813182556,4.217214234600148,75.97668931679563
0.08474063199279552,72.60087448615785,-145.20197560256872
0.040801530439156075,10.795288501306741,84.48049850245224
0.03692233134755712,-69.08056175248936,-13.928520474685646
0.02131633288684531,85.03125817851527,10.831679286742153
0.01882994339724694,209.034697556433,67.8222348377277
-0.052456124382523,-286.9099877559343,-18.064472962977916
0.008742953638796038,206.92856724297437,84.58708893465354
0.015244887586803278,-127.62468419765607,130.61407453591835
0.016951145547164783,-228.43025124079082,134.8653118962216
0.006247631124922826,-209.27878336872703,105.4185892991926
0.046845800386106744,-39.24027823532264,10.490381100688795
-0.07931065595935415,217.17057396477375,-113.93360587357719
-0.010078101774665811,-47.28350046540216,158.5827308517555
-0.08985463748498368,248.43596309323965,39.98449993452315
0.013937076096479132,171.03814647802125,-4.255699614181639
0.0502457780457936,-383.44112368251155,-25.598027529777625
0.051318250135989944,-112.35860786031238,-14.919055420890404
0.0003149595926821283,465.99893685665717,34.736564843985846
-0.030485752543255543,118.85966394531584,128.8399194190222
-0.015017786783017788,467.20133293590555,-92.01589751968243
-0.053350326812481856,228.37884635513026,141.81502531998902
0.1373256673006919,-235.01338563142423,-85.89141641314527
0.013935041110362648,-206.28741245868545,3.6318248347105135
0.04661507720225791,289.21320581032523,-46.06039251535373
0.05265428898568941,11.57001259720949,-69.8801830015742
0.038890994106343,289.21316444206036,21.21492778150317
0.11523566871006366,-20.31372937683587,-32.024468086889755
0.12257281474750266,320.9831835104156,7.195469403671866
-0.0029351584393454027,31.515235919239377,25.810965973630694
0.044360912481262595,88.21330784525294,26.074813688606007
0.036693916520961045,187.82624859994397,-38.99779809538945
-0.014054379886276731,-204.8288586150447,-139.37365503090572
-0.03554221595975698,-111.15122232934267,52.760732805043254
-0.07115591765120016,203.2415686712107,41.462335573619725
-0.06665862082189318,-102.26412411778323,-70.22393865673715
0.008703152953429678,-144.17508640735628,16.938984019653553
-0.061785438655387354,253.99912797702643,-105.42984915308557
0.004710636452115984,132.4251896265646,-84.90675744692766
0.020158884041123353,-49.00924237389274,-130.2005860747748
-0.0242497119072708,-224.1568699278836,22.45613467679075
0.04442222434602244,-126.4337547003965,-253.45096647567416
-0.07731488564174564,-9.21349704349935,44.17756079303782
-0.0054480666057973685,15.041489451455444,102.64804577586769
0.041966287903256114,-123.60461356102081,-95.10860336328844
-0.06600476848716712,-356.31007008055764,93.58255764310258
-0.03945661490094837,-387.0080370152007,-165.29529383287274
0.06128838586093336,24.023304028265066,66.98351867386185
0.025528395887653012,-250.88479609742473,15.118985324124749
-0.01758929456560962,33.37431547217686,75.60432582659058
0.01109140350359332,149.80145801285897,139.1922461248189
-0.033844781895507416,-7.400420651978311,68.98056340550774
-0.09644749025583184,-433.62618620348235,9.961846272554759
-0.019116956497917503,46.320123444724715,-168.8668336795861
0.010559039323828094,72.3055031503684,-95.17399059745239
0.04673402098488641,208.49029626923948,-75.89040020443557
0.06877024649329302,-374.02216823031387,-158.25730987545018
-0.04383989026871212,-243.0307199837036,-116.27810856773823
0.014712492776332006,-24.117456276526028,184.27399908306262
0.04762931049148331,-377.9031751822014,-57.032957717708854
0.09439433500536193,74.18938724211911,103.68024644098384
0.030659432840773673,-14.27325598202197,68.46987855338834
-0.07572254977236215,107.60218987765894,38.3975650486882
0.000457421828651484,203.03548556356142,-118.18815501659452
-0.06411497688099281,210.7673703576061,-89.99685319375455
-0.08504618086356415,77.27717973261326,-73.3869328267248
-0.09930040512692304,-61.30861586469223,17.75200158415471
0.10634564639888691,109.12717556566824,18.078851876347304
-0.08272319895497922,-380.83719811103947,36.27587665747719
-0.0005907535209056625,43.94881266441125,-166.72616377720954
0.05869906803339654,-175.3269686563254,-161.88506394744772
0.0386930400507183,41.62910330531774,90.48037287827245
0.025656651630817713,-57.08854029885618,-49.03547521662499
-0.01567757026811588,-232.0163157034024,56.634838368756526
-0.07239511516900014,-185.95883613049423,-0.9562775764991212
0.04947942156575947,107.29445035552918,-8.630085065214239
0.002364901893347482,192.7319674842183,82.19752652901128
-0.01784950608696734,26.994671783853942,61.80593772856018
-0.06544674843716233,-80.99575578854858,-29.428001395215524
0.008991906253041053,263.4950855454425,133.83244153187616
0.05085646697691462,232.57724046912554,-76.61951376745301
0.00013321402756509332,-153.40644701415923,276.1338825189759
0.045819505862651766,-93.43136017512424,-29.710582394028002
0.007882889833336968,44.185766235387014,119.05445087416113
-0.05462459469554174,73.48300100607332,-92.08756725944102
-0.04442902638338452,150.25676744169246,-32.296782092410545
-0.007674867372385562,-171.1976359847264,99.12395778557213
-0.060949758073937134,223.11794521152447,-8.176041561517273
-0.07230944537579868,-117.71568848604012,128.72058107876862
0.04100812878201369,11.30588040721234,21.43185463449834
0.13092948185953077,-390.69218308489246,-73.60011451613319
-0.0768209233934209,-141.14729645844216,-83.66261096523604
0.05744920325344321,325.8048334824285,88.11207614488514
-0.02590318883854581,-76.5355652001141,48.54227099857697
0.03455966411269403,30.739103736995876,37.192968601148976
-0.012387541177104219,14.964790110341788,32.21508704974023
-0.0057022775032950345,-284.4361548442526,125.41878855318625
-0.04142520583464195,-25.471125084607383,-229.74789749572065
-0.024981707636341027,210.49580455259752,81.28717686311
-0.022664154517738604,18.25416105010113,40.030635881645985
-0.06800406504450648,-172.0652848315361,140.15528788525543
-0.07274319125598043,-101.7852331194863,92.51641708410776
-0.013572516552590678,-71.33068949516165,167.67277592619564
-0.023507970619683335,-222.7922123720433,-114.38727093662044
0.03112127988474006,-261.1990906150707,95.28398761876736
0.009328767181381257,239.16907896125977,-119.42180099497159
-7.102570065669216e-05,376.5872137673054,-92.42687676667927
0.03819442437685402,-193.7405041782746,55.19704953676226
0.12123029743586454,567.3973022235788,-111.84220175481931
0.017187669004447324,176.2911544368241,-44.21630629109292
0.028166101444765,-242.01070482138798,-19.472716230608665
0.043135059918354625,-207.53870183593617,37.54569437903606
0.06006286723199594,107.32547237010345,66.70762004045464
0.03664726047763271,-407.6751105552511,-23.075539520188368
-0.013120700533795852,-215.75510878417887,-49.60253185878252
-0.2183610450654483,-84.48007562172155,-21.293285015031273
-0.010851167253080564,157.705253410194,-24.603573050875998
0.016955908488364684,315.5122558292287,16.509374555896674
0.020560348949290985,-0.39121567607590263,52.40430539994113
0.04609296631162495,-13.880169939449688,-42.64399942108673
0.03176013179097573,38.01360050913802,-41.96169215611631
0.0037959948411159256,-51.122157285855785,-1.4205735064560663
0.026112568459711966,404.5134561269554,14.787062508395948
-0.0078119783480476565,88.77514077513943,-90.78979122489105
-0.00034395894883001066,119.12666266825151,16.960677772112128
0.07203045588097606,-3.398228379257308,-23.088575598215204
0.03669357164999281,279.6812891550578,10.542909670739817
0.06530001866317074,97.39291562959342,-88.05737442994342
-0.017106269945567017,-99.38694810509018,15.86177920420442
-0.006830996534334269,7.052279284375579,-61.276297205571964
-0.034300014193560574,146.69309846609798,-171.83841847073188
-0.03955044204804511,105.59693612306376,110.93987403930245
0.02755063229337218,30.011753413044858,-201.35428066364904
0.04110410883538812,265.4891790716609,-33.93974829681042
0.05769754095060547,-6.692630819372364,-5.733186090577713
-0.048026408080966726,42.268669113830086,187.03578195392186
0.08594683388072445,24.24610382394329,-29.07548621117366
0.07058221123216744,234.7060583009465,-92.29482847956085
-0.035015567219084213,355.481580517208,13.822678098550162
0.060409943279163006,-93.2537930499811,-0.05742536654886111
-0.015721395293010868,-66.02221877253953,-33.52392724476753
0.016833959168477308,99.35543882881697,-46.542495919344
0.01677998569093654,-13.302211659901547,-80.6536152149277
-0.02458934923542008,25.628640212292837,42.358819573397035
0.02412066038870589,-92.76106667995062,-33.8303527416091
-0.0022444633150177818,-205.32861335074196,-91.98938534285199
0.04323107382199074,373.3739420926204,42.965664754864044
-0.027823685249742602,183.60872634804284,49.96885144965098
0.02429195489308412,476.6546037624407,-212.7272518452064
-0.005913335965310494,-209.26434592149633,18.928236566041974
0.0013975399123549613,-276.92190552109173,-105.14972326694286
0.1441178341226937,83.30443252524937,-49.62756496012855
0.00247371050990732,94.02005695383797,247.3656317519933
0.001174036276855323,347.46884732024387,120.78550890527002
-0.11728300670838482,-7.400013081039549,-28.776717023875197
-0.03013893685413134,-264.82099091233755,-44.80528727967438
0.01801605294818835,-17.991238271442548,-121.81934053987203
-0.08772656519802592,7.638256008471606,25.763342605682343
-0.06497524911603093,-269.8956401213206,24.07415142128152
-0.024880967803496523,-107.58199408970606,-12.437759790358891
-0.025441002686233328,153.35555445098683,121.15163081465448
-0.017723312955655962,162.1437593878679,-69.64352535803076
0.00469412761086668,-253.29560790587138,-84.04294709380558
-0.05553961837841048,-74.46409886121535,-154.45533710175948
0.07331593303045653,-212.02714526347046,-8.5057255917299
4.6798665509472795e-05,136.2145135491033,49.27560922878564
0.0010742208972099028,422.3868641420232,-43.47865612286682
0.024097098689324685,73.76570565762482,-180.5204966721588
-0.050925030771348384,-100.39169284050288,-57.00244106078862
-0.008568314098878208,153.9751350879405,29.88922052490286
0.061125032437288895,393.03149917385116,117.46375770211056
0.03535285974126589,-92.1766393595231,34.17123434714947
0.09018597247324406,564.5357358807272,-58.68173227661057
-0.0671309375878357,-209.93242489067802,-2.675742940622371
-0.030712172045377708,328.63787340127107,11.366577023060767
0.001413433182954476,-201.2426461003945,196.4029060920649
-0.004253947597062907,-149.19099824532208,-47.33831293277286
-0.12009423746546428,-76.00782789707138,99.9304666131432
0.009784823441280587,25.233092705117173,-145.11037689964377
0.044793308296082385,169.7361308302761,-97.75232290324661
0.05531838553822826,219.0756277556535,23.69479021228413
0.0622895746189675,55.341304140713966,-4.179029757051636
