5.688790697588009,-26.938217584314536,44.483689055713576
13.254755378499922,-9.63802424447067,39.34341810682046
-26.72666025840475,21.89321985867017,152.25086911399666
-37.482991509181375,-5.0406026453034345,-3.3507377013362265
-25.105377908364723,11.953806912682595,-102.17829381878576
-14.332093700993271,-2.0054139596563374,-7.541305826864192
8.044621283928548,32.901723772609564,63.68342094626637
-5.835655317096693,25.83389574952473,-57.91124140656323
-29.19455269076266,5.691194881403973,42.11636787572843
-38.137577635855685,-74.06237803735192,122.28886188300646
21.33761532582853,-10.7619767533996,35.08916089125461
3.957394019101924,-11.447292422279608,-96.32851792966088
63.73734224040834,8.804788951686792,31.707186755376448
-61.82115081448517,5.509566875196379,-33.46644271935399
-4.1547606789462606,14.391587527154032,-9.362389386138682
-1.0055883402001535,-2.503272212006809,67.84000531087457
15.728592658516392,1.745074653555732,68.31730999968332
43.71077276687723,2.546111575584468,-52.8745008639639
-19.475271041769098,20.288713672088384,30.345872628220793
-17.75860461185985,-65.58613943297907,-105.97628149110082
-3.072008368383505,23.37067981481765,-93.80856716194857
9.41161108537313,67.18682677005654,19.72171027223325
-67.46543141799077,-6.492385717322924,-29.82066172878994
49.23865610337807,-8.786076794100252,-175.22780390834703
16.659032688736524,53.015806632611934,34.91839878903385
-45.22799625680232,21.39434811445447,165.3032837154257
18.389538686884677,3.535088700351339,20.538296805320755
72.64579193094362,-29.93566071914657,74.85253027651437
32.0919718821231,-57.78630442856938,-95.2236754717431
-45.117553194545025,15.68189541991259,-129.9325188853079
-20.346240581605787,22.381337105123595,-116.7808829987504
-52.97219791070482,-45.633443772452665,37.54462460082354
-30.514075112266763,-29.232411412161053,-7.063905534349115
13.556150450397613,-24.713810927030654,97.41181414919924
24.941279368133415,-31.82565424188626,3.743425424036867
-7.358945507232205,-11.05823427118798,0.15671185099354473
10.05078608489479,3.9119340204723847,-47.29595063072878
9.009265818763224,-8.756823841361939,103.67941313290143
65.28330354731402,35.17590361169624,-154.13079777919026
-10.207559055113945,-18.684508198369134,137.3437489486316
-19.931448603295983,-6.5003806314628045,-150.79076788669178
57.688591325176,-25.9093504186899,-6.029605165960329
16.608794936904907,-18.928728117383933,-2.6379832917361035
28.809393694370094,11.660153190295473,-6.830212049610383
-14.369863982127567,8.080174333750373,131.2009566903475
10.418977502058677,15.23599043725097,78.08541497620395
65.78275707174471,14.034401499910562,-42.82106082291634
2.8461042892224686,20.065952943953576,63.200095439379346
13.941520958917812,6.531364655539143,-40.737300910459666
-21.297672920384333,-19.675142936666767,-89.74688648219734
18.374934176859057,-16.628236396737105,64.90926243000486
16.851123475426085,-60.58069845130882,-108.54986074214254
23.513078385430724,2.281728394654737,80.08681623516141
48.419678743513906,64.81452346938399,4.8019369415237545
38.91154950750194,56.77522547485829,-97.10704022614135
1.702981562028391,15.250175176324811,-24.41280685009728
13.320776724824416,-32.39445661637141,-4.010764835084882
-40.31588072298241,-20.40229540413533,-53.664143240606485
5.123589996906219,-23.412477251048546,3.4175500795223934
3.474023459464224,2.391467968583,-114.40391090753926
6.441193765708496,23.30141050242349,9.34654767013982
-24.239354267014527,15.670384028410218,46.33601788689994
-25.270428859326145,-37.49277314324325,-79.46639186585156
67.84344078023022,15.70598036472369,19.60696813620764
-62.70037897510621,-5.086637847497446,99.23021796948446
-46.645512750326155,-1.3225101432749231,-7.94361784335077
1.650668017586909,-27.431887865749673,89.82020742451867
90.31109690628398,-51.95449353624439,-86.6090070614172
41.392491388813085,33.07232578475808,-31.554014010747675
47.37422405532815,23.106466351806297,94.89872932977062
6.264596235901199,4.251638008014813,62.96404324976082
8.84884573620169,17.901889119649105,174.460131532082
-0.7093397821764582,-24.286355880829195,103.33490338111672
-27.641837189095263,12.071776234345236,-98.52770411779296
12.194909331313337,-8.935828397576365,72.10868204527162
6.739647059601174,0.15583466110648705,-28.900602178677545
-0.2001612403316865,-1.245057630945715,115.2259869608995
16.547280099993404,17.012165966928574,33.18789192084385
-36.92613077005459,96.00271361273828,135.9413650224699
19.17980008998017,-31.066185756054008,19.906563317568114
0.9266947182749281,-7.4863357163010855,31.202552239721463
23.62725352525348,-1.7730364164085337,144.2333038420009
19.65530316437844,-36.15154459904176,-29.10043630062376
-38.71829288875796,8.844028717594098,14.62801417551357
14.399069329810462,-18.72545225586536,-111.84063236238268
19.63609498654752,-5.597867420644873,-152.65225180425927
10.431659169994175,13.729214104387168,-33.75936373783013
-56.93428457177015,14.741041692301335,-194.67524679854898
-50.60546082603835,-39.75984184357446,54.08448789939229
4.518890792945804,55.87242351694754,-18.612944193824028
-10.798723272345109,76.26020719455809,14.607972671098679
-27.169941580876475,72.3625784652886,-15.78249832072634
-4.944137905406247,-46.10245497723767,-39.52603490735476
48.23769805158825,49.664016452454966,52.774298344883384
4.62285503155005,17.952623630538564,50.27831550527097
-2.6749460176418975,-2.993139314432043,6.334221504391245
-18.01021656536828,-45.15187016434605,-30.89257648311245
-32.60791965928956,28.886615504219737,-48.634689843721056
13.969045016296985,13.54598638797759,-121.64847422230312
19.984581467681014,-8.979890509150097,123.90525433087251
28.763531236949625,-2.616478217456244,-76.49269479430215
12.39331514449249,-2.476054832145517,-114.51402148035848
18.214876022840446,3.506936458732899,94.93476003946883
13.080907144317141,40.93055059406955,55.2172780984312
-36.813594871230414,5.080781619469904,86.0579975799476
-33.48276109516464,-6.489337218821381,-124.75533521750405
0.9353970560500504,-10.390635284613076,-119.47535907186582
-26.69390959776805,5.379549800104489,31.94037954978502
-25.83153729984383,12.046102218399923,-18.8027336191718
-13.032938972958764,24.016299947235073,-101.25186761819167
3.0487496974462194,-5.745755579460815,-128.52893448874303
13.41368490997337,49.610932944556644,37.2650299837793
-26.326658686641938,7.67383419798685,9.851408682157649
-9.125874777685654,5.0480663708225535,-34.51940291241755
19.53532102768245,24.770786587155968,27.08155697858519
-20.169507743734407,-31.142162889319547,-121.50930812451722
-38.73459411194602,29.320647861988004,16.344701018005907
-15.019052107489184,-26.992354667177306,-91.20809252011787
31.53908657928769,-15.058741830944566,141.08514190665025
6.673495421307419,-27.34553843708896,-115.2759447522975
14.817747926111807,3.812840856014806,-32.81752756275865
-33.084255364219324,12.215777194726183,64.7014461626708
39.100950031473474,-7.219507518330365,-78.3565999152284
-5.7334141411999955,6.349873257633,151.01222629261758
10.506713394541434,49.55483029557188,15.111005483971176
-34.31654894786006,2.1173470857006524,-21.85457894430222
25.916548171467173,-55.449289032079584,-87.66370346157265
-5.32506738037986,15.411925571637674,-9.81067997661127
-22.441354608898898,7.1189320430104335,-63.812380058992304
34.42909302412604,17.76024522443744,-49.36246399797626
-10.79318534661434,34.94361302730871,-66.44374786627469
-25.34252303749449,-11.241561086027385,-62.58654023864765
-24.53705319748627,4.655479192658439,-14.26451268785448
-11.396619180562865,-63.29386196652663,95.77882565310631
1.0658172904713188,30.20471700890845,-129.4707538009153
-12.797901964489554,-36.848486544581846,-125.95818327437328
-3.0163411187569653,22.939072900733013,139.20109323383366
-7.107487148754129,13.58379343569133,144.455471653373
31.978710889919572,-20.09406533375801,-123.6880479469074
-44.306770988912746,1.557839187561802,72.2208585925737
51.031040583788545,125.25320385956778,114.35030562339233
21.85780722187191,11.057776221993164,52.52720439391693
-12.37414201243396,-4.777952030847602,61.459124702633176
8.884573315176768,-8.414990947992777,-92.3895053251102
-15.979072931713906,-13.68542270879588,119.55132564051172
19.061027888780735,-7.578393168802465,-25.411396977065674
-21.53784791075592,-29.819183137284718,-54.41104295220764
5.917027184552145,12.029989774464154,5.042875130445763
28.91083579196154,34.488034460186654,-41.29859451229631
37.57936724408534,31.289691660147362,-29.519103064535976
23.584974997834067,54.57202144205193,-21.06061657358576
-7.258677646625215,1.4529631765251931,-75.21981028441208
-6.639163927136666,35.54494355245839,52.22967095293974
7.802399051538761,6.844672032873869,5.139524333894538
40.205597665778306,-3.183090186606563,23.51833521201391
5.253283609295314,-24.91608175447156,-42.04158517656558
-3.2965925969347265,0.5532453288475777,-45.02871576016724
-0.7890451102453775,-4.044727390427138,-136.92534934120485
-18.741614867563946,-20.066340880790964,124.56655844567321
9.48690877011789,18.120610891399856,-29.43885280985533
42.20181989935069,16.982339550770362,40.046969964744264
-7.526759384869104,-23.573985382549402,-142.0753121255747
-2.4662742033258143,-6.892498507791414,202.2988430216395
-18.453252688560553,13.123371440107363,-63.14537341876006
23.677773141300626,3.634111849569595,-53.831203098023394
-29.98691814408537,-12.374022282336494,104.78948846451546
-10.171081610741654,-17.710170982982174,134.00080024111253
57.224715631353284,-56.91071469040796,35.3163768696688
7.7539505981608405,-14.892263363112118,-16.020197111896724
14.038896057463788,13.651153931150715,-66.95428939509958
-1.4271243466908294,5.561614617318708,-37.479452056380374
35.94256837492368,-5.085038080398055,-14.572439463163434
-9.672133073222163,8.705707841011666,-169.34479157892702
17.81885118823145,9.707171776666955,-53.40527588647067
-8.170132856625587,3.3491273596020226,-5.309724389843554
-28.47259867485245,-0.14723084214076396,110.68026730598369
-13.471973454683043,6.089563755698068,118.41619286661326
-33.4483984584094,32.90617924909927,22.061918713297793
-11.352063364788833,0.33223608657148984,99.53821136532983
-22.56121143348584,19.36673799157937,-26.830509971236758
-67.12719431068196,-31.419155001452058,-99.92574463931567
-15.80033891464477,38.14918380486031,61.946391783121264
0.5490368190807471,8.016718122385596,-29.253805092893096
8.553413866193942,64.93369042629622,-88.3962464975839
28.6279017320901,23.69085432801968,33.17603461475721
66.3043187697423,-54.76800161936774,93.41388339176774
14.436281167640551,39.089846269462484,-148.80450191023274
37.300872871017006,-18.60690275561874,-52.456858794329236
-27.882953953953432,1.9693496326071724,-104.70548990675209
-5.252921984590526,12.083109384892357,27.82378413104478
-43.087688823306046,25.93739111391238,-14.004335895924234
66.40576956736749,-4.036670052082894,25.25330104900305
-14.27156998561952,-40.06437715770293,-30.861370382892996
24.433402977865146,34.2415605562953,-84.27906075391323
-15.600694524054648,11.19007907045042,53.00175351593367
2.470852007209572,-9.435905631221141,25.57004058941773
-19.70767720272637,40.20580086140461,29.511377148693132
-7.55609402447649,-5.973161432458945,-36.87900944715664
12.008461082556863,39.86692827888171,72.0213129846196
-41.32422401673049,34.01147514954614,11.466126972782689
-4.386521892126749,-14.743827930896327,38.210101156702876
-18.033913314611635,11.771741156325769,35.27741328019645
-25.281688411078978,7.40778620443878,-65.1847450017153
35.44597100956833,-7.475850267813917,-44.285062107240456
-17.13409635994036,-41.596285983308384,-13.880750379323645
16.56478373055179,-3.0792821971523967,12.21044045920451
16.604291733142595,-8.420102204353892,26.47577990455925
-67.61849339649541,-6.786403419695121,48.672072172348635
-33.557033423710244,-9.538717085565898,-43.061618491067726
4.763740188099801,-14.210588592374394,29.878803762132605
-51.994888661627414,-33.8001090948214,92.05202044422741
21.583225954173916,26.699944775286383,-0.6065142182638127
-12.451645737739144,-20.94988796218995,-16.163086300397435
40.348836754459285,43.1530422811539,-152.75725443769483
22.824231305442158,17.832315167193485,-20.18568064775813
-44.318806251430864,32.601971968272004,-56.91222255922902
1.0574304374709935,-6.230347086149826,1.7497434894546815
54.66813866944126,20.639427086120225,35.08038920289299
-29.65270968961206,-10.532789961521672,-75.88873104182696
-14.787045292499783,-56.79258583687706,115.92224987055731
-25.11260979570979,-8.394433062855619,112.30549645874694
46.717978941269784,-20.144093994888728,3.4281545620748965
5.023877771040606,40.79466918754166,-14.458751724152368
-26.17176777133277,-3.196289754302907,-20.052360262886452
-34.542079268916474,-17.827784843551406,-22.789795370478426
-14.819703999509112,-59.11152733929559,5.196605186701872
-24.495751754129042,-24.141343662755347,-17.683585926590062
-16.912856296682392,3.3540710320503,18.238516091031308
-20.853583673343383,-34.824138977179366,-104.31473041725599
-9.126927531310006,30.779390533733025,-114.89463886023472
7.576613709540428,-11.018028412432951,-45.21737623999221
10.491104138251984,-64.47424549649428,-35.80376468816052
0.9325511457591492,22.754449351074395,-15.926402366875873
2.3609543620696107,40.4294051461338,-45.78144967463811
-8.579481487170339,-32.59912235187874,-2.3980479887367685
-44.3590041879574,-29.361747239160366,-32.751169337568456
28.693999383508263,-6.522132330387613,10.07202688267364
-64.39505370188635,1.6723013673016078,-14.67983655402962
1.2539911872179168,2.2979224565590304,-38.40196088541405
-14.98643195225562,-4.694199587232802,-41.137541457523206
41.75414121290234,10.094015799386803,16.50368743367076
-25.934265749389045,-8.258221599943251,17.448510708273623
22.055829646520372,45.729093117835156,119.99472508762905
33.46334216041073,-55.837083301353296,-17.782290949379668
31.370810124687377,11.752988898486972,-40.546228303629626
-19.684050501496216,-5.836097441629389,102.97721349334412
-55.326481669167734,13.382670320301452,-24.31578289220957
-14.091930801681388,-12.005488730819504,-142.82582876075872
-37.727310954713616,-13.446756436314685,5.989272773407306
-41.36641555908929,-39.216057853815734,-51.743328644993
21.12840362558383,46.61797415565299,-22.592624327201747
1.5389194904457704,12.007982782001093,-190.28299266318837
2.0647219296589836,-34.03313967792829,6.565210608874833
-10.676081980642518,-28.51062068980778,22.252490765507766
19.83236054243782,29.68578804622585,50.03158136412894
-20.008568042555872,17.84814976021022,-76.72608330475828
-48.28690616545399,21.986872233642632,-21.864508755121538
5.729400598361192,36.07295126162785,-17.856276763166655
-46.49393343509955,32.29907770798595,73.86532444782216
-33.9328193685494,-53.744925969383104,92.24314882500838
-9.887694929154584,18.74902683855143,-18.79132264756197
-63.84538051384278,14.372492353340574,12.553615875585649
-13.843683687689454,-7.264315667690343,8.131705220460804
21.362918903668632,18.412498657032934,-81.58118124139344
16.512845707649365,-12.1473820980643,214.60166385021756
21.772915251969437,-65.6937511939668,27.438884317376903
-10.657325307009875,6.711796046375867,47.873794883618146
12.270977034231725,26.638702778697755,48.659265565944224
18.745993328669112,-40.961597570042215,114.935396195136
-1.275794171318899,-22.96027444770511,-15.005996023518867
29.01936756373001,6.489913916335804,-53.518927958888305
40.94544728623478,6.4658880778101135,182.80606385081185
-16.541374251881948,23.86693364773759,123.65475506818845
21.749862883830467,-52.96610303897752,23.28289959300872
-5.35816146560629,-4.120699080734959,-36.809794366995554
30.356531840342647,-25.732547217319365,-74.12257984570633
-1.8861952169734277,12.90864659421035,-137.31245481592555
10.828487909632663,-19.144323535875554,9.399956883465508
-35.23342340743907,-31.455404545120015,110.58501341330802
-62.342975941127065,-65.5412452043358,2.9764221778675095
52.17636204558618,-8.32588160771273,-153.8470130783135
6.455972384474936,-23.491613293366363,-52.2759758319183
9.710612535706794,-34.5476867448701,5.288166189752861
-37.924784856421134,47.81246087679092,160.35794447152648
-11.878239829727884,-16.58730954955689,-64.25066781717942
73.6762468678435,39.700935769503296,67.78005508692034
14.778683091446188,-9.19825628157288,1.1676048696259966
0.874679319320853,-14.51252044799117,-44.093158043178164
-11.229096004425944,-36.612278929352605,26.50705321319134
56.078473786911715,28.14956113648701,-1.9400541770381932
-13.086655030316415,-5.641579413455114,14.675372907806562
-13.291983296860048,43.59784657190908,-17.05088478904993
-46.87213253800089,17.758987919713373,83.10668648689301
44.34736725689025,38.97537673774559,103.66796567471583
21.38574061394157,15.80027475941754,-107.28557962762851
-31.658833960849588,38.93498246080881,89.60710660488067
-89.0809906257839,-18.453502391680324,-12.169088709206742
33.9279763984274,-23.092621248379345,-31.99076680107055
63.12402052954861,1.9483234263655567,-28.94954511820483
-15.209886195241424,6.836357811140269,28.230975314796353
3.2803966797704422,1.3759244853783692,9.791052797008028
55.43164306724463,-33.43395205162807,34.622322688439596
-25.498964112383653,24.658448545078034,-78.76892786895138
-51.92076567698804,15.27735583786199,-25.436726085025793
14.220623450203348,34.984984147730884,-31.91677364181677
-14.224284697447903,12.448422286768317,-107.01524932119825
-12.108344760991836,32.08181752654648,68.99178522890166
-19.254737893229702,-42.49077318441939,-38.398139159579245
-13.784117171823217,8.080780120434312,18.971426312207967
25.85809440435306,4.423980576659701,77.26431799707417
-44.01498936043636,7.370165508887175,-127.335135012435
21.02933359613182,7.13190970148345,-94.75135004542246
11.686041527427157,-26.479267179878565,-116.78943158106469
-3.797427229616794,29.863406723877407,98.19546980575153
-12.725588129103064,-38.146795706117075,-56.10280223028007
-3.209323686353201,-25.894407319089193,-15.422826840830473
-4.629973756381922,10.31757434591981,-17.537019073277396
15.094552494331525,-13.53565456113914,51.42858447717011
-70.01608596687772,-12.54082334930864,111.3341180153673
-12.224217111899785,54.24750609568279,72.26550548223594
28.954531121093268,-58.61137091154108,-46.97322680472063
20.947500528611094,-2.6582580556002777,44.043765949786966
-8.247078067482288,12.547564603497335,-84.18698206590484
-24.130509924657915,-6.119181943803643,-114.77011282091905
-7.311080040267267,23.103894816464383,131.88993246531146
15.321388869001538,-15.195707006936477,196.1166410462013
3.1186191689338862,2.402862716081491,2.4118387534294374
20.769877230911167,-17.513981616728262,-47.11854057219056
1.4615390846953322,58.863892512769965,36.273228365101964
2.0191259050996737,-23.308075761939588,-0.6662260603898087
-7.862291242123192,56.45999693084546,25.474762273729127
11.202523813681463,17.322628085694678,180.70060002176643
57.949202932473575,41.88331024826058,-101.02134621128198
-10.144105793878836,0.09902422855119374,29.689361681093516
48.47877306623694,32.20138973657025,75.32794355466103
3.187500047076482,-15.248433305323694,-219.2986486469104
27.08928649898905,-23.401148828828713,108.96366737486719
-42.43951274839558,11.367816531651266,96.2850466210297
-6.2317415138724765,-14.234401016780735,23.45435787170482
0.6494377814625163,-17.48632339558596,-48.684657236705384
10.680778274392944,26.507969024984206,-135.87027413085028
7.268534353613986,-6.999167863624373,-146.3969639272264
-2.512819623527546,-24.102619881026964,117.35883276371715
21.713322324261675,8.962906813180899,-6.937519734809086
33.420676600198234,-8.991495717235905,48.1039835678619
28.995908221888506,-42.3416323483713,-37.06704847288702
16.962317403238163,17.466894873591816,-139.50146368186782
40.121998898946686,19.25079390649021,63.172856048241485
11.454620679392129,-26.5158001391495,23.65202974499543
48.696719423592995,6.017974169142609,-27.94725929358065
-48.73418362752527,-12.927166058323486,119.47303992390276
-42.2988726768323,31.161729101113668,127.07420310773976
16.242982209444882,22.68643940374073,50.326579416530706
-75.05984840678884,1.5091874803326668,52.72515357993221
4.6035307531583305,-17.58151993043929,-69.28731842084203
-5.896429035548573,16.4616302028872,-85.47297828037728
-22.937364030444563,2.7433349766594857,8.058876258162396
2.7132389443436837,-10.345586829644466,-135.2214056409631
21.38571795263302,29.91380587108509,-59.07432733695941
17.21299726331601,10.292896067759793,-6.701900565456828
-57.81246882213422,42.28098780741132,122.63915543877049
1.663931772603562,-14.97422835508021,182.73321021911386
2.332291969954824,38.842674469321985,70.35106813530982
44.41649787420484,35.23809124550528,-4.058411390440564
-9.301585825450754,67.57205052969594,38.72327757543162
2.392293581987352,79.89384419386923,-15.94967552997731
63.37633058260509,40.58627616342639,-0.2617214942837001
-8.585107275646033,19.450918012572448,-3.5980800213046145
28.660313785156724,8.040953189182499,43.44587471345805
-6.904169404870661,-24.371341407113388,-68.1472381858516
-19.400851626863265,22.150244017545383,-88.0219432948313
2.674035868670536,-4.995655705758956,6.443870704775138
38.24933113315837,-5.015024483539063,-100.47549995237273
-16.087763734340726,-13.832759304274092,18.693906481861372
11.107918307970047,-59.97688683973689,6.164535156156436
-17.246961442606942,-8.746257352924804,139.77268340229597
-44.61620996679475,-35.93970294911532,-184.2950428306217
-14.520640340423009,-79.25140435158698,117.67392425008337
19.199876846473032,17.33492096492419,-9.158635718048966
-46.443166163304475,-38.91293802328645,18.496733501911947
23.56434016190111,-4.340358807782975,-24.283390376685084
19.399520872708305,14.36106480568263,84.35939539721772
-22.748169094964314,37.77449775005267,-5.961589343653818
-2.856695951389229,36.651140825440436,77.25986154692256
-33.784521098114894,-12.192909795136561,172.8366227510811
23.0434103218293,69.5992116527868,-4.5661716091787365
23.466768704170114,-67.58896563911294,-139.80717151674577
52.859283116831115,5.239375787398871,-73.83833579746829
-2.4857415370086873,-33.796889193716936,69.00949404495493
-7.848824701839241,-13.886221065903376,-33.735240210996935
3.162567476566252,31.63473539651445,69.10593577302
18.141651636915512,64.5998874848718,-19.416839593694995
-9.921611516198363,7.0578556068925895,45.113861163924625
31.397542823905113,17.934574918851716,-113.14478701354405
28.779793013617727,-41.24847278611732,-12.97297999509155
-28.36229078694958,-24.6771907393208,78.97486585346547
4.826425613101852,-3.430742654710668,-47.72326818887561
-44.348236281373175,35.58888410623082,-126.49847043428893
-11.941683807169284,8.941755036861338,5.240817994721294
22.749704759119247,-24.733501069441417,-39.785418375522724
3.96116242763393,14.114632356524151,53.90159931722493
-42.13766173313195,17.77729506377887,-219.93349392005908
-68.70483502743612,26.185471702817395,-6.045953549384442
2.2697301863467927,23.69313385884846,27.703163830652127
-16.91947957810582,-21.783457526939536,75.84973217647811
23.774620607104282,27.737661442608164,61.670496367542924
-6.572398054688593,-42.28871710661233,-96.77051033893505
2.570845043650278,-22.395454145067895,-6.6300233535766075
-13.955677121172073,-2.683684036121605,-113.65274256521653
-30.20672148481236,9.9173530118179,33.80789581283182
-43.007586688273214,-17.86758600718728,-2.787877463528759
-15.684896137829524,-16.36866275985144,42.17103546645547
-26.01168477348704,-4.513451392227997,-53.84493670944843
-105.02990231844781,-16.539761259270694,136.47528671569154
0.5033245623760586,5.097377296824219,80.18947979300351
-42.179268126206296,40.21209076801607,-56.92157028890601
6.8392827780311825,41.7973207354718,41.08804366218814
-13.261823321160769,59.98015825512984,12.56305482456627
-63.6611889334083,30.341084173330295,-102.59038442864215
-13.25568298238538,34.63624596443408,-4.292677252065778
-19.096026772257655,-4.242110976716036,-194.6877466029087
66.05269309297779,-10.320531946483364,-43.87650002815245
15.639217726028702,20.49526599363741,18.95324422822271
-16.102073495024218,19.97774900676638,-13.208276989338028
31.510502299527886,16.85688746751786,-29.00689767460495
-3.3637720676507636,-28.775905610947973,-100.67834914078036
21.5100758364825,8.567043869123959,63.583142764435095
2.047145383293592,6.3574810696564965,43.66097653424865
29.412671142496084,35.35782379375053,-112.49578022138735
33.21330403297005,-38.992963149624295,105.39842288467622
31.852774600034625,6.363087165673929,61.454761937937185
-46.35195783398255,28.63711884090374,10.955211656316317
-34.21572527327596,-10.964592284082956,60.55896240255989
10.415382944814251,1.7620131044260994,38.76433727740292
-5.19552697392475,-45.74081965579893,24.959300453562093
-0.4554569200018177,25.269539895347105,67.82895670953391
-0.9528279509240849,-3.1833780547640447,-5.7601713730476884
-27.431992618582658,19.71446544123755,-75.75393728578787
-1.560121097761597,2.42497406168329,-9.987287918474232
-72.00049179079217,26.054145468433926,101.81505463059507
5.113267236900276,16.293710509715794,-100.67644638826013
6.818037911540024,50.17805434943505,-85.48725080676269
39.72796595687125,17.249798913658054,21.378690274105146
-48.349971179609994,-50.865816628519184,-18.740151132845646
0.9802676443052017,-21.339697434998932,94.86967701073047
14.796930827178723,-29.71740389958614,38.06339284430901
18.111258427840827,54.468475062172395,14.00472290540538
17.68170920467112,10.670696153354015,-114.61924502496943
-1.793554913777985,10.495629665845113,61.46366943421561
13.579902866180909,13.764883272480697,127.6894853672942
-36.60653322080978,-39.57954720499212,56.37149255646417
74.71300316055371,-29.196014963203268,37.57189693166608
-23.40380841514741,-0.3870075343297145,94.09860490492895
-7.987189384479975,-8.027428025175736,17.061416561870832
3.935185121796288,5.217019873683363,46.681125906587575
-27.003112477072783,-2.898947847423159,2.893531472064772
-10.809361954253891,12.14156974859452,71.4252343768265
-9.759946020016836,17.481861574621995,-50.55004676585982
-12.682919418125254,53.0162932896709,-39.92821347174244
-0.6667100934822079,-31.312673054207902,-89.45065935241794
25.022903442027715,35.47825053005505,23.423702070201603
-45.70600334964322,-72.3115944421211,41.65185465194183
28.864211570061098,-17.542126019547613,16.6774028575445
-35.15132549430513,37.76602390547361,33.13815417171173
-32.49057974032964,50.43850777975189,9.504707289192032
-4.850651971576951,11.109753320892247,57.60539616910816
4.879815983906021,18.20586323274693,-123.55392122340048
-53.077686549668414,-64.00042564427176,-120.53989195012466
-14.453495177680159,38.08818232898163,87.05375936649617
-8.194556390307575,-22.403416470361293,-31.714365116733774
-21.85004990716787,29.289935280537755,-73.28338471296811
18.350042986861716,-16.97496023006926,-26.95936350242251
45.063869918792896,45.97350940688694,-26.883963529882976
1.1432187602415487,12.692706871500166,-40.442784300676145
58.68089783123225,40.3644202069221,32.404648030676455
-40.843991780127645,-9.783920890127234,52.759849502193475
23.66214749240423,-16.828198259380212,18.105147410558896
8.253657677083506,3.8138393851239223,59.922574236109554
-22.846160565910807,2.1573084342791424,91.60491843807256
-14.249586300854576,-17.296689403563573,-10.60832394910915
-7.279440116168204,-19.19477225561965,-47.333509992891805
-32.93299323459854,2.1603392943345927,-36.43807180903345
-35.05959327497608,-17.443914515974758,-142.18882803824857
-12.841654472105107,-12.961650933403153,44.41592506112648
-0.03162842909020866,-26.440290662266417,-11.499261826620646
-45.64239427745752,-36.7798395973689,71.07861201531966
-6.277874060636815,-22.197250528069688,-11.888468549967062
20.2166448051129,26.425645843514225,-40.722410596506876
39.94785758173929,24.16798490451541,65.98273672366946
29.303149931003503,-26.33237141378258,138.42806455166374
-15.866629460737618,14.395085882285741,28.861000252282032
15.05372695631676,45.215933809261436,22.4492238618353
-31.442298595485724,2.2383069441586576,-22.94742374124408
30.932396203619092,-20.213480534715586,-13.58724335882772
13.93912633160506,58.831795385976484,-53.77697580018783
42.298567048850245,-47.736010916782014,-25.495808001064432
15.592375540207353,-1.9943674641838507,156.56632380249758
27.97089910397283,-2.0524593942845843,-56.23387745290437
47.89546015702536,-15.44973944149979,-12.743373831099005
-2.4941706199645584,24.197456855722685,-26.32614936176602
6.791998155791487,-9.005277296935928,-101.08690588816214
-5.943216739275995,50.78556496584604,132.43272084929518
-10.3078371597467,81.35627308223573,73.22154639864495
-10.028906478117387,29.968452623193173,100.17230371879339
25.43252463712022,-58.00831808287494,21.31598623791207
-79.65220996035943,4.633938140746455,7.918051067263306
-79.96558248483538,50.13075233340969,-1.2928727297494222
-1.1517245797379738,-68.49439533966948,60.83967905060936
-20.981822658664377,-20.90217365054221,-58.65410953471161
-8.062824894776503,-10.750772078759715,-79.61850296559284
28.168226324916912,19.145049720696704,-40.34179555147445
19.421001033914695,-70.33282917263118,-36.43943228381211
16.978647624146703,35.287774016959595,61.052737249618374
18.0788828288878,-14.290848684570703,102.9535117285193
-36.30906132862441,-27.187276853827782,18.621888481035413
-52.31271288441643,45.396017176514704,-59.10753895494287
36.77623457052447,-30.962560726288707,-54.70549218133559
-16.49727616937287,12.40057331035408,-21.3698680848295
-8.038846978805001,-18.702080737256395,-97.65225808978568
43.158185646282014,-17.629037788710026,-69.31795420174674
-38.68623830084063,-0.4935181225331098,37.40482744113436
14.488206755297924,10.777209268501089,112.66912315419383
-46.579598482000634,0.2828781874383219,50.83314934162978
-0.575606229646519,-7.324888242725361,-107.60794931851089
45.11445029749614,-23.410529812495334,-99.92880169694864
36.616423346600826,16.40832097070331,223.05677580983388
21.005909573550355,2.727168810336693,-21.28077208631716
-33.991545668822226,-21.585670922565047,-18.300958300573548
44.208801494112336,5.607482082725357,98.13404562241683
-61.67141142008627,28.149246910717267,129.09816919166087
-17.65231037348121,15.550443927195317,-39.93559087598995
-15.799480479939318,21.330041011483992,28.90220805787232
41.54340997254393,12.06464403731157,-12.359174972237012
63.05947060268349,-59.73895197454353,-156.4216950462798
-18.977336204028543,-44.83861823851109,47.764316519189165
55.828684468363285,-29.78066745058861,-1.3380384246622445
-3.8846048692718558,-12.662944476832058,12.05026889524769
5.189165432799549,-5.963709304405171,67.95715218992152
-36.986324849921274,-36.644974114471204,4.765169746068988
38.58863886404853,8.521610439466734,-148.4880519134908
-22.09317979216509,7.677675918362966,-97.50405738141284
39.64278116176948,17.988514091493318,13.685009753764524
9.82421299477026,41.975974117473505,76.90774957470674
10.327114366944036,3.2848317360890102,12.892935599420781
26.702766511663757,16.105633756256182,-9.176439599443283
-39.7488521564329,-24.98747420504435,35.86285922513752
64.08629372811366,-18.912034176715125,49.93720772113828
27.417003930525993,-46.23913709436181,-6.995239181042795
-27.182387778025824,-18.699555731945885,-42.97932905222447
-6.263612111793239,22.05310814050398,97.90532454452772
-3.7861103243693925,9.097797203323298,112.70241202702363
-52.77140005841914,39.31365883723685,-87.0467814958455
8.734088434761231,-36.86301456680772,25.271677547577035
-40.27778243498163,10.357392599336269,-139.3599845607635
-1.5866924160663969,24.54325769883429,-51.459487041974185
-10.126113344805647,-9.256079028562324,-36.32438018125648
-14.364806574037823,-13.07503311364002,0.7047295006578471
-3.4330011924364796,54.25506072197811,8.06705627667633
43.66674031389241,7.193032043714185,-130.8161029158538
50.16154063106763,0.6583632986346571,-12.194565809276902
-23.43402215035655,-5.615491627271743,23.204318653944767
58.69995789149192,-43.87314148149794,-76.82674728404456
47.89830283296938,-13.833360203712498,51.31137215532987
-15.151493475375412,8.57057105040328,6.6605764084424655
24.64063416812604,-5.447079835644463,-3.437893050245398
8.679232358730705,16.82400879751144,24.738396036997244
-12.477676039380212,40.90512403792893,25.784773431147848
33.214057116781,-1.5728246310950096,-67.52965185305457
3.219282633616557,-3.359088118895194,87.93480062724291
-19.93812361733109,19.108686649153714,-58.97780651419049
17.464858376186356,-47.46408958749835,-39.56050743043228
-44.457125685906526,20.062375101121006,11.835312723278621
35.018937451838525,0.5304917698791884,145.72162499260367
-13.927316149055002,1.3113263444407686,8.978306797958988
-23.620522123148028,-33.02144593174324,-33.61045775493314
16.170968640272896,-5.862321344626943,-24.401470291062644
7.7069774477455715,52.952256694661486,117.07074827047674
28.673244403861144,52.685294633099886,119.38104037539075
-25.249113033246815,25.55710678764053,-26.618884842504013
43.803949349451244,24.339752861359713,-96.52035807196361
13.268412953138393,-24.19992492496161,-125.89611510764021
-33.91429979338836,-52.25614598600082,-74.36045165111919
41.004457180439815,-29.35168764162909,6.556611289110965
-24.287117935505055,-5.500875106587599,-115.17145984172075
-68.9152584963305,19.249749160571877,62.27860142224281
-12.98795950373057,1.028243922298303,-28.046120723009807
48.16419960682276,-7.203253659341064,18.25309424451526
24.710870264214503,25.92096735223463,10.882490280211314
3.2450079954272453,-55.6746320511886,-242.1762338553487
37.56176922585002,-2.4942031314225392,-32.98213445683014
7.3628343527831355,12.174319637776346,82.47554520690579
-42.59192866486012,-29.368656833438273,-67.15192016005821
-3.1964233297492086,13.613542606864899,-10.377035186402107
-5.787903385230561,39.42492464800165,154.3075859594412
28.587104843382303,-6.812449229277073,0.678530027233051
15.645898259461967,51.52410303617869,44.791718752266604
66.24411278008527,25.18598818157341,-111.17500849569105
-7.167903912856404,27.59011672699815,-109.81959198500678
-6.376105099072519,15.544808781909309,89.71253270620424
-22.085193863664266,13.977815427906222,52.08114944219956
-6.018046254717145,53.90231683041584,-21.073847642141978
10.978214740142374,-14.963571998450288,-124.68344974231427
-36.91507241038222,-7.8216856964918895,-12.48493501432445
-47.99900026315337,-29.816273861721662,-69.39658647669214
18.55390241697422,-10.694781468885434,99.08553295866513
7.11093360873456,-30.374547917907492,139.57367761278908
13.546457951983692,-2.307403098408251,-16.955255456070624
-37.19646100214929,70.55231288949479,47.144450941309785
48.05283211938855,16.16048148441284,-37.0648479997259
39.37470268538407,-60.03074184347045,49.51210752617445
48.04975520003586,-9.992944620545734,218.3766829312887
1.7010805701353453,54.10112261140552,-7.239057616816579
15.950028921130562,-0.24101543008554116,-114.3129177987719
16.892479200232025,-30.24194247988809,-64.23249650602597
-37.347731271710224,-18.56379400408705,-17.441449081755728
-29.51849759105928,16.943684380553425,0.24803803179759815
-33.10136506075015,-2.4338565367277734,112.36744747448304
47.949771797946795,-15.20043267645362,-2.5139017224964877
8.221752708980079,-3.777333833360201,-34.6433531966572
-20.503192835665345,3.572089579932854,8.212541301046583
32.72126934341578,-1.1033366965701266,114.85523284756906
3.8441297132653878,12.888286903541175,-46.46970090326825
-22.560352567412217,22.6208845792243,-16.769914916281362
25.96908588126549,-23.091409925187666,-21.344677992377306
-34.12192086241308,33.38712514057837,51.70459631976432
-50.609700374528664,34.27596117314382,10.237334246357877
31.58741351504501,12.958534032110554,-120.70330867769066
-13.623990074564356,78.03947265814335,110.81198433347635
7.032312968369272,7.8988329233965935,-57.01957974678254
2.550060948573986,29.595245250652507,-3.617757139694333
-27.900986465364777,-15.042016135941905,37.434612324745146
-29.05962070478274,33.93372157295177,-22.629224804560643
16.747900274495954,-14.207219742065487,115.42933209129413
3.632419654119381,0.007830911259172214,-36.55877961884529
-67.30753266515131,32.81020815530227,-8.31071042825817
18.518845580827406,12.404070490516409,-43.5903107269283
-12.648285096695723,21.67818924820897,2.9669604530233573
15.70299288154228,-4.975700682413361,-55.500891588794595
-39.23363883744729,9.869304889987127,62.71467697635374
-14.34326638824174,-25.80151793718139,-4.741611800421925
48.77055775581123,11.713132392090102,63.01292869742227
8.911286213783972,2.2509986369445016,106.98883327861984
-26.129455735887543,66.07498845960035,184.50726565297927
32.620283100334525,-26.60804831166832,-92.45091756413655
1.9368762166044404,-65.10488360699216,-2.7500671512924315
-9.071034659054222,-24.509133910329112,-76.41005024999176
15.621254709379423,36.536983314923056,-12.35086866965188
51.61263114079639,1.9174931748004977,117.38324220394531
12.298526556157475,15.8011753926786,31.981532886568665
18.71289909108786,33.38340703244515,155.01772112900593
-29.769981235279438,50.520426051473756,-32.068467295705375
5.213290076642377,-4.705057012397019,0.24910868490322496
5.909408234283439,1.3359968361612742,76.11070277510078
-30.27010460194892,-30.789543431439693,31.844695209285785
-43.61500519648317,40.57303415236486,51.537100435570636
-13.55950000029994,3.9903592144956908,47.55312729479595
-26.86089671074291,1.5912184203329618,-137.27829096954352
6.082362065580743,5.011262871635343,58.78795550090107
-5.727457222432609,-29.135269731775224,-17.146435115334672
24.931817449997173,-17.14606031357959,-42.08769290346715
19.779356438493785,-8.3730919271439,-24.839675040053947
-48.54761380899841,-2.547375232338645,13.286381320835526
-17.360438993782406,-13.554769177219153,24.420886310827676
18.581374948226088,-11.263195009990321,88.35764363431046
33.41730214873492,-23.489446339652527,-179.00817303714305
1.4014625347509584,3.660138076240659,133.5711722946759
67.45344611083645,-10.203150806846915,-14.398990586142293
-26.990830652849983,14.161745263620034,74.04089651436684
21.768555449392068,-6.342251526863564,30.738277209218865
-25.01150949859961,-21.158929097445878,2.8752568150789184
16.400174772204455,22.75977561932615,76.17732072656891
54.98425295523207,34.77123844531901,65.73986557317089
28.96422960375065,-28.204248818784286,-22.062190939081972
17.059174843558583,-23.161319236316864,3.30366285656667
16.46741002180888,-23.347752754899336,127.23465044538517
-30.967079979672825,68.18828018240536,-74.3607702562843
-2.6753796737656024,24.584186108567035,145.2294939017383
27.447223353769722,24.2598700038259,32.134004374487525
4.619306057818679,-61.513187580790884,-101.3116441307366
-12.562648541358007,31.264467011466625,14.323312738243947
-18.786539025092026,21.036853620960407,7.188887176339705
19.884168575318554,-24.851651787588125,83.16576380951871
-16.189015393415666,-25.30312303545922,-0.07865470316519331
3.1246889927019015,25.194421078124435,74.20260923809775
30.776686560471184,13.776684182882333,58.871332160633244
1.7764686445998805,-14.156519284064418,22.897052617123105
61.8778561081944,8.404297880557674,-38.16802594568208
-29.90991305058156,29.081005641294414,83.66682783851425
-10.838404632888809,5.4677563027234175,108.77188031664824
-7.324850641016917,12.899815930793714,-1.4160540663126928
19.706964805842787,57.33053636131257,46.79980216423373
49.090874133452424,6.083116150877299,119.65992388587553
-33.94269507419335,11.300539240875157,-18.31975880180699
-54.88101745676992,-13.488748993738358,-18.8701105803931
-20.958422313783142,12.179423801664287,-54.3607833697441
-8.358054187192595,-13.01622110041715,-28.516203977985626
31.56469428720831,11.683949445777895,-39.19200941666912
51.65378561923618,4.994801358486757,44.22081580500471
24.14827587428349,-21.68967502937852,80.89924759754382
-53.74853431785956,-2.523064490386807,69.04001068734271
0.36506904768585074,15.474869608157634,-62.2570326789927
-5.452542042760986,-20.792663741610077,39.616785286146275
0.026878220453585608,-5.37445979912694,-58.752213788123925
-7.600093309109306,-10.801136382673677,32.72297001147801
-27.841992685499278,32.396644675155315,-117.92566736977702
26.8219004514235,-48.62326721632592,-76.78464967155267
22.456271117418073,33.044259415946414,-57.70007633814615
-13.909190974323657,15.28194877761019,-135.47867499649968
23.729734974030425,-41.32582144933941,77.58442056627011
4.46285814349002,12.390341679398569,64.39003797409606
5.8009579966792435,-33.85717220924047,-26.781137257874242
-5.303384309480817,24.377101341111096,-76.11627616433564
-15.981650719064923,6.608422141618071,-5.03944645616151
-57.99076546441271,5.3001558039756915,-80.72151543874895
-11.733944337413966,23.882210145643572,3.4779077704802046
28.08231849073352,-14.76352601639848,-75.66145017800166
0.43433940054831066,-14.218041323503272,-35.77783820855912
11.061898928567146,-33.159907557516355,3.0692758164605505
-25.249022491925093,4.271212507002672,118.2465840244954
1.0854261308786783,-22.597398360612008,-83.82614955801138
30.85691706127334,-2.662715897666386,140.185781433086
-35.857404953959104,21.380375918352968,-34.09495057021184
26.303817103298194,-43.864508476913024,18.766406417863585
-43.87183548000415,-26.03397058850606,167.28472286822242
19.219404315916876,43.20267848817993,106.72812639849965
-5.03175637091533,-4.771923115424938,-7.892547400517065
42.692150230534494,3.965140823151386,51.981812179121185
-39.97143828590616,34.51858394327521,49.91380215025484
-5.145848390258472,-40.48284939118981,199.96830687186701
11.865033480522003,6.854931051432812,51.048559342403806
-4.319973507098941,29.678511847018143,4.243607156228139
48.11576787155306,31.052899286423784,65.78178123437114
-63.456838345199735,-15.728034333119243,178.12022042615382
3.256142720396087,17.287395080990823,-60.48104001927897
-18.922055426367496,35.09870181706855,162.09185310808522
11.093957838624286,-18.910183753595327,38.963683170932335
-12.385788313047467,-1.6863287263573166,61.52017510734148
-39.35834918860623,68.02036104043668,-160.58227527546066
5.254524994111034,40.78480276206327,-50.63895203606904
13.75754397272878,-12.821765997461466,-16.85941866177972
51.46522681152023,-14.092422492396627,-70.59339941551629
38.16074538767782,-14.575580897559435,4.017146840039628
-64.4644388128861,-16.507528985494123,-11.459820306949693
-33.58338052418947,2.3777285786355415,-72.36813088414361
15.877638956877458,-23.786413511340914,114.14865799200913
-2.778935144857404,-101.17464278550986,-23.30290980021443
-22.369136411085513,10.513679292169789,89.24904511276246
-13.912885646231251,-2.161605957327332,-32.80562596381523
-29.99299119982962,27.54268521948796,-92.81310565754131
-4.430736600634937,-38.072824501244,72.5371849866406
-15.662109614815789,60.96057840030032,63.50949220936104
0.3909072003914448,-45.23219407537306,-20.55128834518936
5.759649151468357,-5.038607615370799,54.08997977897429
61.73205606880326,9.43303854089288,-173.19657100786029
3.255444845472773,-48.46595642795452,-28.297455571069946
42.84849839871271,-59.537894902409725,-9.836792836303495
0.8174046321189944,1.3982375747023066,19.005650627464025
-6.275268165123327,-3.9528835141810035,-87.30655446440495
44.89332568352631,5.761551625483042,26.656186727944252
-11.875115012084601,18.828515427541955,-23.75975073047126
4.470316211190248,-31.215555097401136,22.660720306609285
16.04027778444269,-19.354963830382342,-27.00913452338603
-14.962285558252098,-2.420155679249006,-59.11173554819008
-0.14502748036702723,15.742650057136581,25.13503951399491
-28.124451884222488,-35.60322746994922,33.71442383345942
38.502886190334465,17.190502758011476,-42.782254325219725
-57.12609434515873,-40.883171757556745,24.568957365349775
15.329319325176282,25.68796735152038,45.16777849359301
1.6838028714102307,-3.005633676148122,57.45141187968066
-8.990949049700465,33.64595310118228,-69.49117674339267
49.32719906220617,-30.81962959143521,-171.56593267241433
-30.17130993154374,-16.25293494641327,-96.31728545334276
-10.70137153023791,8.126399716276058,74.67783299218148
-24.52772706550943,14.373995851793683,159.92135519519218
-27.98074137547437,-4.176487438180033,-112.97418594906716
45.704525135928236,14.344597982570868,15.91186066011927
27.208745894819675,16.532363348462987,-65.94814867633974
9.054357662644927,-39.32305422022944,103.6745536380745
-1.8576536357608324,34.268727668718356,-136.28321085400054
-28.21488189812509,-8.034085382176706,-98.21801457235648
-5.578429311136196,34.629444457873205,-16.793690994285345
-5.976678306139424,36.57592542160518,6.314875610935405
-0.312583676175387,-22.315079128519454,-56.14916957648789
21.856477762095043,23.884701907644203,15.543374412911252
0.9410280666321599,1.5803578417897413,117.89403058350045
-21.465611486884654,-4.1382876229490755,16.7193929594871
9.289120848840039,33.08505929519889,8.08943580397096
-42.67717480283602,23.426863590125084,85.08817315644166
20.15263181488637,-0.43212837507108687,-39.350043108113056
2.6039821688716525,-62.3015673928453,-58.46694366543897
26.104844844731605,-6.91666479026607,-101.42244025567754
-26.33438751476023,9.995310066910074,88.00275293611774
38.48619374215591,21.21475822822566,-119.9174659640346
-20.052577045441627,-40.09663720234754,-190.61996117024503
42.14363330799262,-8.442263365822255,46.66566047372501
15.479026742737508,59.940550596172045,31.58291645340603
26.823164007545095,3.5488744497400564,-15.750208010163398
-5.661787973029563,7.730485763536073,-48.27969847606934
-23.173896246549198,10.529804536363558,-76.58567190164106
-23.217483977144244,-25.336657652809837,21.47525269162356
-20.592444761448686,16.829179896728647,-45.06672356369134
-20.181786522841225,-24.818948332669592,15.381036500027186
-14.707916403370145,15.787723238816643,-142.53439644977823
-27.55121097195375,-3.230568383808192,-25.69491295745162
-12.918838786360677,-25.696004684677103,-22.10681618703207
14.936055973227852,51.717498056705445,27.701689907097613
-38.100675351513615,25.26108616676449,-14.428561211773623
3.1493726105332014,45.410163817572354,1.743316597213718
13.496100176079512,-20.3137119550084,11.56738667177985
-19.666339622523832,22.475043763686124,62.7201578038299
-29.048412717149205,50.77946603085145,50.625642902675594
32.876173765962214,37.98680894179941,37.39224694287704
-6.820594949535374,-7.91688174177883,-47.91165655963235
-50.99343657012162,-23.547183955360605,10.483275515814256
-34.916046451387516,71.56364450106423,-8.67867288169254
-50.31633351459786,-36.607154952551475,145.4717357968682
-22.88170170340267,-31.441192111982563,-76.17144732100778
-21.591929552339366,25.0828151981562,-30.991085115274117
-21.509581475585243,-21.648585365082724,-39.88146865467462
-74.06087404752718,3.3156311223089525,68.38761177587847
1.12292879029503,32.42444043237977,68.66554179063617
-16.457431034057585,-44.156517843192525,-33.93242369189538
-7.202357344202756,12.036260650150664,164.32217040083708
15.116664198158018,7.384516143374323,50.25827298052359
-6.370213020953687,-9.91108274553831,-34.30252581774023
8.82107172637173,-17.318190202221196,-237.2546333164485
-2.844806941812062,15.452921809145069,125.2659993847659
6.761966557828342,8.492891023244672,-44.52087840008795
28.673551614376827,-19.3080952538101,-50.403956976812964
11.043212524633855,18.3792580899836,-0.08195622131647527
84.49299400529672,-35.65336011429833,-54.26805148186762
