0.9970242937835847,-0.6528690114454964,4.798664777629103
1.3628096325671804,-5.748947100725241,4.916910706038093
-4.366188222785156,-1.1812210806956105,21.14601133607464
-4.219200691637562,-1.52124838247212,29.869522756584942
1.3215214207947927,4.277132796136289,25.20417722734531
-5.023877333462453,-2.654439697067962,24.217317129197678
-0.8697072258833418,-0.07787689216572602,13.214822878318076
-3.1490081957960974,-4.85154609664087,8.43680484233381
1.4877241782697392,4.076617542099107,10.76393967151783
0.7828555456366991,-6.055682238386328,20.048213658255992
-3.707874128621556,2.7812799495260014,27.4307524017105
7.165064849733218,-1.205064826661667,17.36896953025134
-4.0156874696628195,-4.983039081787232,2.382360074333377
0.08507208042483824,-3.5176227808566876,25.217941969532774
-0.22282688051190339,1.4316866044475605,0.6278895735394885
-1.36700603980522,-0.758665089416353,7.668692266453926
5.820031849560639,1.7900163010799965,3.646339363474813
0.10381887098496954,1.5453020259849053,24.63277275942148
0.9728764105932007,4.637151234797219,4.367043153332006
2.4484505831306027,0.898232298989756,3.5778033376178167
-3.014681268828689,4.096263748403244,24.28836126610849
4.555637996955476,3.109762017485326,0.8301291322631776
1.0858168134000223,2.513865139896823,18.042741675358968
5.759868492093629,3.8734323419894428,2.917586587356047
-3.7776566709498995,1.5005688580968617,23.42807287773958
1.988779378075241,4.224629510282835,24.405057996898694
-2.858327556824447,2.086478347797519,23.745560102133357
6.130574567004577,-3.931510637963136,12.905150477946554
-1.6190241088758974,-4.833756827060741,28.698087395569416
5.642414921099365,-4.122513593396583,11.192256504599836
1.629401492861489,-5.302386131060449,12.622135762762031
-1.7680884206913157,-4.566958122774797,18.437039687502843
-1.8778291835874195,2.3714707556753774,22.062716984468523
-0.38373368323205215,-2.1524026962464498,3.2585914067586295
3.841096865556591,-5.516357886657844,9.859388813089202
-2.1422717582338757,4.846698498542806,9.219319418647355
0.7572088051549843,-5.524392630165692,24.512975436086382
-3.3224517622339933,-2.3651932542591365,8.57234714082299
-0.7927791795898194,-0.4664015446667442,8.521235832706434
0.10596524356250717,2.7311147339275927,15.105787485510726
4.3579852540034025,4.7173747992113,25.13068860248951
-6.474359550674552,1.767763319363428,0.009998047871550009
0.7942973481562673,-2.8636971117113394,8.770037293403313
-0.020381161777943854,0.302114962861647,5.366282593392419
-4.235871163355237,-0.7817430306879767,18.553735834407796
-6.149020029213058,-3.3144246588138073,14.866585367036247
-1.4842604903210137,3.318735100430267,3.5638198775438266
6.685713161526996,2.576628484256988,26.616535470163203
1.4052918559519165,-2.757272537701141,28.763532222744633
0.5255577810568102,6.475017708006658,7.370552875438252
2.789005264095892,6.722172101220833,1.7218688372453794
-4.10857405424964,-5.205017873383852,10.136744080799339
-1.44837345561881,-2.337140182883569,7.635744174742946
3.3680549274984783,-1.72341835898666,27.187382259531475
0.8932631252020145,-5.380256069394576,0.6967222823241037
3.8351038487712508,1.547324235518477,17.75704661852396
0.6591901402870897,5.738244812837734,4.008467060832741
-1.6249886649439558,3.4177549743489424,29.719771562529537
2.108507896243741,-4.5542999057793585,4.392972350640041
1.772926292700195,0.010215382270027985,18.613042106114612
-1.2443022698690953,5.447723236745841,21.156130909663336
6.575937011410097,0.509877013402711,12.991147454903786
2.5580338782034024,-3.423899160367266,2.8522901179525375
0.7397926744804151,4.874202393102393,2.631972810903985
2.41225051935372,-5.439225284027188,9.128098663647355
4.354172129583629,4.32295742862552,9.018259204727915
4.255426668050849,1.0794244505172728,10.375136070691141
-0.7065927309639554,-5.7151403494347885,25.725459481788853
4.2475870925256185,-0.1192552739155365,14.705814664475819
-0.1547426433778329,-6.542684249674477,5.902156103792189
-3.4497633580486897,3.993037186397078,27.631873934747276
4.746939536217933,1.2448389973425769,25.29790701202033
1.1059166409104007,6.28603648057315,9.099439067287374
0.20661768486800516,4.507558092712358,15.58913702735559
4.55374480300952,3.8437282771003334,17.347757547292407
-0.13448519885772892,0.8747778182348979,25.855841432125796
-6.437925690876183,2.9320468400474335,3.689725805275055
3.99843034590754,0.041623851332232745,23.13679304312195
0.8990840296525887,5.5756026521645214,7.283380824596471
1.1789275974821458,1.3929899552091483,25.096229681033737
-5.665274080500984,1.9754908219013436,13.183741575602175
-1.2668374689603448,4.855830220011356,9.31456701382802
-0.07648653747987742,2.1235439656003563,1.448541597162345
4.627658953882867,1.6042501292013436,17.960144719170803
-3.015276729023359,6.20553767747388,2.7976086191094716
1.618474249908808,3.3620328829163166,0.8108581980584217
6.12854270411969,-3.892143897900125,15.050496024552244
-1.2479387171492435,3.539080525965422,29.498506491048403
-1.5848300579145316,0.06550304531871586,8.21311757303133
-0.07108802240809046,1.6629028766639755,18.890324761104292
-3.7480305537824976,5.548073877226753,18.014833621765167
-3.452096418981134,-0.33179285901393546,17.81126053114297
-4.410487550298385,2.6392239367696098,14.571179219327222
5.783517642718517,0.6472984968482937,27.03390385857023
4.516459233019425,1.0411837117436318,19.99141554176398
2.5012508167939558,-3.508269084097964,22.66697542455867
2.3806414674137883,0.9017070933597553,19.806813009853972
6.870809304274848,1.4492478857667845,25.063510126513435
5.953872003314893,3.5381839096837804,13.017504555087525
1.4356250422425871,-4.268178641861517,24.26213710709487
-4.316555570424736,-0.1985895222677669,23.137101982479
1.5093574290438432,-5.494208108134769,4.947035959310514
1.5726974596837935,3.2163779586165147,14.719014336423879
4.027592899840608,2.898244854423102,25.19262807369449
4.68884803069548,0.8687271670596289,28.834785460445804
-7.168423321416086,1.390109277057845,18.94416989241671
-1.2102028883878089,-5.839388107018447,9.847250605233919
-6.19635392717232,1.5360971604685183,29.309549622952524
2.8100545404230877,5.779414681996154,24.129625074002245
6.007092527254744,2.4633539283300077,11.389326355320016
3.2683283682972726,-5.791132240746541,13.646770222779402
-2.5392287879522364,5.835696711988715,0.9869280178415141
-5.859424161304896,4.112701066683369,0.3129930992010732
3.6771871336951727,-3.3331166524613907,11.751881779611459
0.18852059617936434,2.6059657104320406,8.817280018354122
-3.8306614482527537,0.17095241443869016,23.15420968523965
1.5509866385535116,-5.917215798886389,11.218923939297314
-1.4231160666327858,6.471715983365533,29.061134297152734
-2.6275124455601375,0.2609302378284908,6.486938837442989
-4.453429351890012,3.9570786738719748,17.80083211467777
3.0400548302426844,2.7829975517155208,17.843260975306638
-2.8024897989604365,-4.9882514199128964,13.976792736808973
2.2791811375127957,-0.035061324508615745,15.46111962046909
4.74952970913444,-3.8040247423441307,24.758674018641013
-3.341677739558493,6.002558060558263,11.971839941049753
0.999221183199743,1.5797948043752619,10.125547814096183
-2.210737921038422,-5.964845010224367,10.990394540809667
-4.5322232515252905,1.2229777681284097,11.658711854050027
-2.993237577581173,-0.8242628504916203,26.52635445087764
-6.119009037193978,-3.3932604977843877,13.8392721217309
0.46830689805952824,4.915325646076924,21.98350269595555
3.7127073911206834,2.7276899207365153,1.953869412145165
2.574485382517423,0.27026987039930184,12.06929791787771
-4.437562488374096,5.410148500962288,24.795941913459437
-4.347327342038131,3.4142096771290023,5.083916527693766
-0.7777577773361557,-6.9201693356041405,18.316648847236266
4.746160376213031,-4.231798704650038,9.75382452454192
1.4558811708885702,6.386611127802114,17.830988470298273
6.101702372581561,0.27616572986425264,20.873305712040917
-3.505344875806174,4.613571544474496,26.52995729997076
-1.8042357751663003,-1.477383444650494,23.17274236684118
4.0118896218168185,2.47482061771375,20.737234603282413
-4.208832744112832,-4.178435517045903,3.681241994935874
1.9549194482762533,6.784041201349643,17.338571181598518
-4.914895173129384,-0.2435856874628241,20.777516783626645
4.493510607006286,3.592527459968881,23.275590135734255
-3.6264765537383,-1.7930330390388531,12.447914568205352
5.267805472910545,2.2926205333250684,14.820987320130136
0.7000896077571398,0.43540416545750765,20.686718530320903
-2.8323674995788055,-0.7121559786498218,9.533648371108463
-2.4106183916049204,0.31921224782877516,6.948074738280292
1.7786996941332942,0.6626981866125661,24.85248059966454
3.599833823690927,-4.358880953155763,4.783994556957766
-5.063218423736139,-0.992086657208822,1.4055556787566903
-1.1007722512809675,3.2864514096344775,11.64052768147975
-3.4617813009160123,2.8971799224869965,13.050439870622938
4.966109511562183,4.1349144958704995,25.64687279645286
7.021285670403928,-1.3028820393867355,20.352909943848335
2.82273889570283,0.456902349842217,13.981770638451485
4.796431117475445,-3.905456520912115,9.55175445172542
2.4926546943726087,6.1248219158521495,3.802811505897904
-0.5919842869908493,-5.5995129851701755,14.472230080375397
2.378069986493552,-5.388824071619004,0.09679169238447582
0.23850732550846376,3.9639671562347685,8.67090663703267
-0.33424114828041623,5.202750591142863,5.190787780375511
1.2414422272079686,0.9429716571410406,0.6630127546723885
-4.164802603440001,-0.6485265363102418,21.909113573105095
4.69180029665587,-4.536536222155353,5.685564468035793
5.970712331261798,-3.2131094496953927,20.98965846874858
6.191510913205565,1.3913690313827882,17.009287718193214
0.23642941203689088,2.6018693776017874,10.339035160486649
-3.4974527929239647,1.878626534027607,14.904862105364401
-1.1445666889338397,-3.0815272834266096,26.438272745714297
4.719887426352973,2.2362623401428188,8.417515377475942
4.352787166836801,-4.361733439903152,6.531145234732763
0.7493331369279078,-0.29098663514086676,22.811926727773074
-2.088518102507211,-1.026082613724456,28.4928064140877
-6.163516484788189,-2.7161629360990434,13.27490742157143
5.891988153233129,-3.2153803414995035,4.941989125146381
-3.622854273258928,1.1750900743959223,25.246028413415935
-6.5539564987230445,1.1644812780899876,17.959417047406745
6.957615874640395,2.1786901253318773,26.948749802042677
-6.875808404336599,0.9267712088559283,8.129067771760374
0.01488933267288752,3.3457435562036077,3.6120650473322025
-2.8464808759458027,1.4839712289565261,20.133214163864764
0.2735539005453326,1.4707048230679467,8.64826334966991
-1.4927032903873636,6.446267343119185,14.775936933905879
-2.6047847781726,3.7591967283391816,17.778234217838264
2.5884105218786915,5.144228094338347,5.222730279123491
-0.22500816235736804,2.2235546236922112,26.783884095183797
2.992469178872448,-4.142184665250848,6.857537083008775
-4.460999144539772,2.2894462707735235,22.744371224786565
3.5440353947509493,3.9784946713088263,27.57811434971346
6.344752576899554,1.9020952223379857,21.986766022646986
2.3653177384813295,-6.938140656843877,5.678963682562896
2.374750751836107,2.7303177587264664,2.4415165532903393
3.680800020349455,3.300272920810885,22.527622925873352
-7.209775535003349,0.9367142430663168,13.516117739132055
4.238160426564438,4.493457227138344,17.47561834102038
-0.5363207504189191,-0.20748121924601684,5.358086305515587
0.24409723680021558,4.297883943576572,17.521452989048218
-0.6647175452807323,5.951020592688763,15.216505481514789
-0.3929908780296338,-0.8402045070103429,9.04227830338108
2.299400466951131,-0.07973402945925649,26.285421299007233
-2.0002734066428784,2.591205421341254,8.625469852515025
5.106155424630272,-3.19997716674703,18.311710488913995
3.4911744601566164,2.7399378849293785,17.70224630193679
-4.091947553828616,6.075241170305321,27.810076452693494
3.414449276546387,4.7406940873869825,1.5576093521113377
-2.1097536884012915,2.2250246433175724,28.335753824641717
-3.050695023351464,1.4197319624417293,5.64396927599233
-5.104318413485851,-0.4993129138105418,15.630712506133074
-6.441584020903883,2.674737345152146,4.235202641202445
1.3253809102540928,-6.168409165323073,11.875788370114819
4.340827585464352,3.5329222231860666,16.165088164391417
2.4108243075442637,1.9849761959218666,21.373883810546946
-2.5315309302988136,6.269761863762653,17.985299826084375
2.844660439115499,1.2183445977368608,21.534281181288645
3.240459308083196,1.8101924163708702,6.638776506105008
6.835117813346425,0.060230937886589425,18.03486588524273
4.450381188615837,-4.543778170900693,10.774963971018805
4.820962490694702,-4.5277914460808,4.793389494336498
5.668737966623349,2.139503657642677,22.150772525173082
-2.1784357672319055,3.100740721075355,15.251028058208206
3.7083581243499477,3.413163293191345,24.951934743418388
-3.508343100783406,2.086633674183535,18.473212238164436
2.394384958294173,-2.9186015525164954,21.492298254378465
5.794959743604596,2.888230149087567,1.085147210955466
2.613460468625372,0.16461578391077555,22.763423204947475
3.7587774199148307,5.993946724446584,19.13007048341719
3.1039317088925364,-6.112445297900806,27.740014542125444
5.880087126188674,3.0043287061838133,17.11901027856765
0.8616661739714363,2.431972854584112,4.159765219074051
1.1939993807590528,-4.598311209919659,21.372016138683144
6.1883606919049186,1.0267537378442053,7.233402629506748
-3.1086479504252185,-0.27370783923046127,9.40725750438186
1.739921754060781,-3.8681310349438656,19.273398830898675
2.5936174450003846,5.253357288128828,25.40557783836112
2.8743449785763513,1.5392675264985942,15.058614467400925
-1.2899657359431973,3.2455949439087863,17.151785219265125
-0.4231242551242875,-2.3239608499234348,20.887943718378224
-1.0347790420904661,-5.7389010668689515,20.96230568117986
2.5080093772842247,2.772692133834825,12.375039476563085
-2.6132232305068257,-2.2283070840813504,28.95873161604569
-4.184030268541754,2.4136454090543693,24.24734902792195
-1.2825802154255508,0.3569497058070021,19.334523021261774
-5.621082975884551,4.024788879013588,17.67862607165506
5.591057936714953,-4.2272348033251275,22.31622975863749
4.820201349881826,-2.9129168441963214,11.005555280111542
-6.714486260306526,-1.9993105450576918,11.053182329425828
-5.321387302571926,-3.5441822317013982,13.961616678060349
-2.2725940166651557,-0.05972900189430356,21.0948346523764
6.102553833630241,2.5072100924962273,29.849494585017958
-6.60757424626619,2.714797463623532,12.729573072596551
6.756666802144333,-1.3072185530312868,15.952928028914064
1.5087689988263095,2.9321921329179346,7.683652694268499
-3.151168195152778,-6.386370607811372,28.9435458472741
4.201408619541672,-5.891191444843874,4.010784468443912
1.8576840620331758,0.9720482453728713,11.912968579407279
2.276107582523872,1.988610186429087,3.97186200838588
-6.230968912192408,3.635079233532256,20.3706612873538
-5.4791712870871505,1.667202414893442,10.28925984006693
2.455217774705278,2.9800441032044436,19.638239108164193
-5.416291930699264,-4.088163914902414,0.46060348032519793
1.6748332055023798,5.532345543888679,20.523674559067288
-3.1824426322021733,3.169708634684114,3.4459649354141018
-2.213964692953165,4.973843768271571,4.031532784618925
-2.870316126837798,-1.9515485706478441,25.375279085179184
0.5578069384069061,4.016622958701835,13.27862974842486
-2.12554605379654,0.3012792659452342,23.367458109595713
0.2802505646494506,-4.107377514732353,6.169418231851394
-0.9409252307906893,5.334934467208265,15.613202791405627
-0.28456031228922146,-4.297155984523678,28.0577992154037
-1.878364358386188,0.014471407304378943,15.593023295206788
-3.4374577186660495,-3.674529864228097,29.868810560050505
-7.081792852316495,-1.6697330860369082,15.10941119033536
-3.709070100780976,5.331266937487389,29.204019036142636
-1.0697482786753862,-6.597523905699863,17.303773135341288
4.6999585005534605,5.390633976171266,26.331464266355596
0.38615956343215785,5.622889682407123,1.3914729334258913
-4.41490020094798,5.8581538309684245,19.53826215161223
-3.759313571643182,4.195816909864994,23.884141459480627
-4.0129912044768155,0.5901090232064637,5.0435262319205565
-1.6776305797640036,4.514903630262305,24.69402432595794
-2.8498058779375706,0.16077816026172276,5.6769381551690445
5.476097621501859,3.472303621361572,22.519769395413064
-2.388839412354224,0.06363610392941056,20.07261231257174
3.1127626952454417,2.558837264240634,29.129373895414574
0.13937909061433318,5.259958657106783,18.59736490493267
0.23030901207631793,-1.1776500066683313,16.680725088993796
6.583080903382142,1.8265876097842964,16.408939052923763
4.370705776621162,-4.803662800835958,17.797547857434765
2.947406079016393,0.9946145915084892,26.25144908261567
-3.1015390459118657,-2.275287991170135,26.60008315860298
-4.092134572215505,-0.35289155402790184,17.288225636454754
-0.5320147583018603,-6.62470152256072,28.930984619193286
0.44996082363293666,1.061280510063696,18.024491077693128
4.287645484942937,2.581530308338947,2.3202062432686974
-5.359165091920943,1.1552366708375008,19.602233074892883
0.547705235033982,2.7973559814949236,16.423772218249123
-3.530209286454121,5.039937623033134,3.3539007293630863
-4.844474090701165,-5.0324347519996815,9.174265130151236
-6.6167541613956695,1.1414464787771799,24.34904858069158
-2.904728354212071,5.9294141196781505,18.600083243313577
4.198445794497558,1.4521865277696109,15.091440790569498
-3.093638875727102,3.5132684234098974,14.482780892817786
5.586085561779416,1.3676206852059747,8.031724937183787
1.5559697014537446,-0.12563065560548786,19.134236172229247
-6.979419023690585,-0.3852139837084705,23.946267252295527
6.918669022157458,2.037706622691412,19.572896559055575
-5.251178459555141,1.609565377904299,26.966242262709606
-1.1152803397274518,-2.095793845716099,23.527905141196776
-2.784505529474098,0.4048473465847936,27.632691505286548
2.0493165528195942,6.68265408156258,27.163148766573155
-2.8404331148306885,-3.1868018931518405,1.4958475817550898
-5.330589720768511,2.053512842958788,5.078720794858943
5.642161568760477,-2.4340081436767096,14.599404164039047
-3.93095736578379,1.349585820977391,24.793224165992545
3.427913629026026,2.9811753379286765,17.33734618474033
1.949293082853733,-4.519757657739168,3.436133504746982
-7.012779919502665,-0.4055642977509491,16.395086081104523
-0.7996079531170183,5.953252465176258,13.768400959743753
-0.7641397244316193,1.7867689059321197,12.994796784083663
0.7683710814381245,6.372395493938402,14.300973934073482
2.7419589811000513,2.715025928052358,6.056843716420142
6.094078419149882,1.0370826125856454,26.65397045890365
4.11477753140494,-1.8357423699258673,21.79085510295139
0.9237298743722585,6.138146147804578,10.600723166580131
-5.415510329966081,4.897763590502706,24.315604687441017
3.1513837574208594,6.089055803312229,21.737150445081305
-1.9053055292074796,1.5384014089362255,26.61244940565036
0.5845147847937847,3.273239779345156,1.5941052003796752
-4.763804853834399,-1.8989148979325852,22.802442031699574
-1.7410106889638326,6.316847861359531,20.592182096553728
-1.104504596436812,6.472660291076256,23.20259254857591
3.2046760449664395,-5.404893464458488,23.69667623814244
5.372317399531955,4.891003228091395,25.27931264916843
-0.6151623549961718,7.014152279234987,24.432936049164447
0.5967570886465564,5.064373862258783,26.38854091406231
-3.3327651685772466,0.1724379704376134,23.27261078462604
-1.1563505327469057,6.557938176869313,27.52989356149401
-1.866018993753155,3.4438999354113737,4.24399633880272
-5.400920931321722,-4.459076278948373,3.5421893854751083
1.6325856708344801,-4.803557975786687,9.36114622983713
3.8653876843330526,-5.854260794196342,25.432785697788475
4.326873340861722,-2.4736502478742826,10.082515462330978
-3.09463411584421,-4.680601239798757,5.584430225972525
-3.861955400420283,-2.832431320722258,17.65182134161784
-1.5987008105030338,-6.804772585274373,10.697920130568843
-2.642766637785806,-3.900514604384976,26.710565890796726
-0.05903321420240313,-2.371697870543532,27.337845844317176
2.66118040981629,4.678745456528588,18.822430238069828
1.5090474855267253,-5.451353410122521,1.2249636475164016
5.681441139315896,-0.6119012292047582,29.862345452887194
6.035808657504193,-3.8931437620340845,19.411250040171552
1.7467148284031329,-1.5065838074821085,18.530642292157026
-2.912060305382527,-6.372888487005314,7.920286405276842
0.8651294381794264,5.82019583394619,4.308914162592753
-2.6297637181394675,0.3561662842736416,5.063472189307653
0.3575639915252087,-5.5135077697775525,12.065629498457644
-0.41394668863295875,2.855678793184732,12.882687551044265
-1.4785115253174406,-2.047788904937221,25.313946696370973
-1.285346524284256,1.6294103534617217,8.283447934577456
-0.3673292765591892,-6.773137949052448,21.933747045883578
6.340990289197636,-3.1372674911784797,10.629299638283324
6.725872359638251,0.4767661998361407,20.644237491372273
-2.3943159980513027,-0.913874686081659,27.017042597339586
-3.1263515342319876,3.9256969176998835,2.334934508077411
-0.7393966183399822,-4.064413054053875,22.337966508653203
-1.589881050274873,6.223143349094489,19.38965290437729
6.011323667722359,3.0994079843964752,6.060189889659831
-2.1680935843695925,5.785520263697052,0.6579652560848959
5.701834860272579,-0.04948574016080733,3.2728672715980767
0.41194076496992366,0.9285459064647689,3.8461135669159177
1.279029383305683,-1.7010851928752675,4.609244196589635
-0.31152700844206477,2.5794241599309147,16.29659898386642
3.978238822801946,1.684462452928897,21.07518635299073
6.676558930541594,2.217562142951358,5.6152456385332155
-0.5489664377177965,-0.22931374018444073,11.012046225267287
-6.859744290164971,1.6057391592504588,3.708313720786973
2.233053526121255,-3.09365310168958,20.609841827097217
-5.362954378678111,-3.123520770511063,12.378514396263933
6.523702779574989,0.14294034849025644,28.104187749442175
-6.734905368431326,-2.096269399709037,10.554267146386312
-3.7233558670457083,2.7951621019739594,4.068975410501138
4.213050078373636,-4.064120756094998,14.394960589152362
-0.7677864998661389,-2.2274219836228344,23.383462136596375
-6.651727710420288,-1.5303970986806357,11.781944234137354
-6.683710365379554,3.0392559176300975,3.537742024154338
4.353921580396983,5.587738560590921,7.857096010776786
-5.100917761095511,-0.22282015656612586,16.020516629546805
4.389287693420094,0.48539047286092313,7.83635719558874
3.713783486122031,-5.886119799236311,10.588864430495446
-6.4248542201819285,1.0561467842248673,6.662800216085251
-0.7177918555219269,-4.737524061930805,21.240265320086078
-3.9024306060318685,-2.95772230973021,21.615409381943213
1.1693487893519898,-2.7441135892978767,9.233303032045367
1.7485281995095876,5.999919945877401,16.574978529919644
1.9704747779640597,3.6566434209045484,28.007651033460498
4.266454114538632,4.843938368344607,0.4587945024368201
-0.8647838856237346,0.13728916402817312,16.60578237684452
3.8271187070826773,3.386143621529615,28.959423388068945
-5.036185763640315,4.1574996444567445,29.49684649544671
-0.7163011009734831,3.9861717093263223,26.296583387937154
2.211943677813666,4.495913578271155,4.641771941424454
5.043565561861873,4.145711026006266,21.92016412492434
0.13848086923508732,-0.7161045225531151,16.869072728141496
0.40985190245276093,2.5748998832702568,29.83608760353601
4.157598787004925,-0.1396223376699642,11.096506723099072
0.6889604160638392,5.863694981084078,20.33893534411417
-6.411474897461125,-1.3788284215179811,7.853378784825623
5.541289405697462,-3.304860413548942,14.152957620685003
3.5794859765415428,2.981686664313437,21.46376756328888
-2.920970391969756,-2.0365908396048393,19.32984063468338
6.97764606630755,0.6735468056643831,6.0919297018055065
-0.8814072167481601,-6.718702151462951,11.72606643224148
-0.8265576298256536,6.4764039378517095,21.426809156493793
-3.5580175567936743,-0.09786844372686655,0.09303751826319928
5.053934243460896,5.042319842527451,14.399413519455923
1.3791408916903218,6.130060330212503,2.008972701174745
-5.592439177400415,1.7744681161809877,27.647805249042644
-3.4398202907399944,0.017145553020471736,1.616962824365491
-6.504087417005086,-0.616495502166955,24.27926611148587
2.5580108836176128,-6.451377429352995,0.20922952740480616
5.967580328975313,1.7235315935975715,24.960567752092583
-7.14800047074549,-1.1536425398664711,24.496222420577862
6.2384185326359605,1.6880447710810194,25.30466376364568
-3.420198782483104,3.38292249330416,20.50994289374066
-0.06372449150886851,-3.6011819228086432,3.347375099991555
-1.1874486035067209,-1.6694352512309005,26.24565134704544
3.443413879920055,2.5268429110005814,0.10862938727218441
-0.12098598162754773,-3.8803169671596796,19.409795269457167
6.1519606314670865,0.792558069189988,23.366285175867777
6.447046796465755,-3.1509171789601185,0.1834571160776699
2.8986457358872495,1.4256355596994936,23.65745878303668
-3.3512563875053503,5.097992599534017,2.0907650943049108
1.162400657550399,1.3885238644382707,0.9504346540188724
5.032707378726622,-2.2290947887475525,29.601317128365118
1.4452873126435375,0.34518585894792325,0.19931404565733057
-3.5204241828700007,1.775915172205115,15.35749434269772
3.252236797781238,2.511402495934802,22.966581548329334
2.4540285255232157,0.5068748578161798,26.262638633056568
-2.2002456318924217,2.4573715085976735,20.159790123876835
6.225809608089758,-1.2244814794308652,18.508171766975618
-0.40469098849738167,3.1676229148666737,8.869785638375454
3.5125765455917066,-1.6822749211163177,4.574617168188224
-1.895187102406117,4.289119805394626,4.639641292046395
-5.799543313689161,-2.4902296639837185,5.384683225992611
-6.1432388748318445,-3.7983487097057917,5.291561164565066
1.1750461703178814,-1.1993806753670273,26.177903304453483
-5.06670276730066,3.050471230557004,28.18781627281683
-3.233398415348405,1.1957705088225739,8.766021868523673
2.9399922030243197,2.359793858272738,26.415913000960185
-4.410813634263563,-3.1418281229041565,29.40115339923893
-3.0549287880509417,0.21118119153249157,18.657238789804317
6.516317974188378,-3.081276378013847,19.9412185139622
3.9553165237503456,-2.671140298646491,15.719698352929539
-3.5216743296983686,2.2324740474026776,11.089849694181796
-3.3502146393109076,4.8384153052685335,17.901148171618033
-6.273274328245529,-1.4315444386203255,7.494079222579581
-3.110127868938278,-3.826994018267131,9.628695576123254
4.655059264355123,4.212560479048453,24.79198699732727
-0.006695709893985356,-4.6831705246284105,11.981265610897266
-5.535398378891329,-1.6320344327687943,22.737552789379816
-1.3496268097103605,-6.0932167890723905,20.458194253857197
-5.537559529352487,-4.383206925678925,14.299959631830317
-4.9495834999680275,-1.9396875552462516,0.1324797269619704
1.3489376189755569,-2.1759363396781812,7.623528853954698
-1.3332942427874703,3.145652172986829,8.189084513148867
1.8886664217684102,-0.6575567374613471,3.5538874319763325
-3.0652500093738357,2.212162897750178,5.860810375409694
6.450787143925476,-1.964977143312774,28.5052321415072
6.30287374182693,-3.772630393647393,22.66346558654788
6.64907286699566,-2.8220905094908484,4.05180850496186
3.1053349211369987,-5.524612007373497,19.514794171203008
3.233101385070588,-5.820395491219699,22.970135281682424
0.9255879851840849,-2.0348768543109435,20.26732601916165
5.783389349002146,4.290053174158015,22.191653987399416
-0.16179235565734973,-6.900594683936696,27.662707142062896
-4.972645449807236,3.4113421225497027,22.2742050320804
3.4617174170804845,-3.2352949110573084,24.662684559403743
-6.043481017949216,2.7493989279634317,27.342435463020568
-1.5040083529901267,-3.176238733680222,18.43455924799312
0.4501645136298859,0.37380744746253386,10.336351973685645
-3.671777071407041,6.2496941730079385,0.9632392283459335
-1.339290991818917,0.34273425712147976,28.839330570480566
-0.937506980983037,2.619034453217711,17.012127711651726
4.228386418085332,1.9536864177578694,27.71244957260297
1.9297034114102631,6.169555054869408,12.3739609639419
1.664415499898479,5.208144321705974,23.52000927236596
5.842374095854992,-0.9230283876175178,18.494498295634624
1.7607576789200687,4.926834277520507,6.4430434396620075
-1.237612781161247,6.622942286868799,11.881252717832185
6.722196370526493,1.0478553239335922,13.186662202779544
7.124997049269307,1.2477030045691173,20.830609853985138
-3.608096135784079,6.148946422740883,9.466560636395847
5.133966812322592,4.284206183018225,26.987522505510796
-6.804520362124973,0.7751400580118697,20.105537711462038
3.464286025615888,4.825415717958791,9.357547833034792
6.4475568561318095,-0.6155634337108778,11.590062912586593
2.991774311934609,1.4914944126835588,20.229112064249286
2.783667298769979,3.3419794991058005,14.245467113218638
6.319868576468039,-2.2996874889156738,16.870663848636664
2.114905899332167,-5.480411677701621,25.908851960733344
-4.171874557393831,-0.5093818571963228,12.97765267330911
-5.647294486705693,3.7969699733817475,14.24325554870925
2.3236578944820634,2.7403840032118385,9.866518412094345
-0.4997439920823014,6.854204374570726,20.811305519497168
-1.7034150585671974,2.697338238828207,10.845473586990419
4.544833367889231,3.163806701133737,11.260673314535538
-0.4399450850147425,6.304851503501373,25.231701593863313
-4.956919351367749,4.472447366937446,1.7751984883064953
-2.4576907925789384,6.339390397207992,12.674728161803744
2.0645958387163814,1.527357551306171,15.138525393918487
-4.509262070513687,1.2270767791476243,11.607208968091879
1.1039607832355725,1.9021090455673677,3.625295873868992
4.46738732982422,1.2220166320053951,6.660015283296784
-3.697791384144819,3.2413093213402737,19.304274551118713
-2.7698736113481264,5.146153848318923,29.096767842196073
-0.42379986694710176,1.310615355253573,5.114251532183701
-6.319177437864144,-3.555861524246383,7.201384201336298
4.077511779371145,-0.4916575459478209,26.52210213445139
-5.881532413521904,0.9202812380480766,11.077564289206265
-3.0621130800309064,-0.5388451542560164,25.184749168852804
4.6443406362157535,4.7417600018771555,11.888223356202063
3.141033895997664,3.708410520001952,21.27353600632386
-3.322202838430407,6.465431177951145,3.148140751096218
4.200454209721327,2.9897697894198467,22.263214610839967
3.2233803183403356,1.8934256378898178,5.688449239072688
3.393822975398903,1.3414912619146986,25.576436350538014
3.301070881693316,-3.895758646493503,20.470695823048878
-4.350164466118149,-4.259294322189204,22.94140429336986
-2.38501879725114,-6.016863286762522,11.434645043551019
1.1121843002586362,-6.680609475551175,6.322400794717118
0.9799502430401404,1.7355443855214154,11.172111516783357
0.9533677101325232,1.0123151389661467,10.068229350061506
3.2318228547931396,1.0191335348383523,12.012936389173642
4.631595607188291,1.8314047472226613,7.8904368540892005
4.264055884245926,3.5244985607659935,26.36117068832859
-3.6436681125671755,2.32486805260435,1.359917057130754
-6.033945678683494,-2.1189090882813346,0.5453272691351652
-6.61177406643247,-2.11086578308935,9.767994962118761
-2.2136497018337815,-0.753051715780718,2.9080207230013375
6.181520648867725,1.58801182425406,8.742003195839866
-4.80652831706338,2.2372893612779983,15.886206379716105
-1.9076791243700093,6.081503321590665,11.4516521178502
1.6794663665039513,4.033429207530742,25.99678389904467
3.5148738878605474,1.4908148766572098,6.772709243136798
4.778851296466285,-0.44946830162568124,26.035356655866845
-5.11918686150447,0.7500431491014896,2.083572439726767
-4.558354019580151,-2.927508758023291,17.54817623386507
-0.013809317900880901,4.859885401694577,7.395489461870632
3.013171938934463,2.638290702114682,16.251181797163316
5.782858544484316,0.2968984350559855,0.6457061714587908
0.4121308687193071,-7.052406933250837,10.156993997391151
-3.378687038838368,3.1393426329763683,19.29585671962424
3.1406766945339775,1.4507196867293914,26.921601490377775
3.625309871191739,0.3031468444500823,27.148068756924097
5.902018418616861,-2.0600360493793426,26.42549192734168
-2.8936330961496286,4.030936201034324,21.92352480677691
-4.31871641193583,-2.1730403723876384,27.877210420447206
1.0606382550412754,1.4315080065833672,13.451681003210691
-3.896644549900024,2.540214080305415,26.028248328098226
0.1681412294181494,6.516755973536508,17.106141611117447
-2.5763125925313353,4.360371773572441,28.20943868514269
-1.5627248951107557,-3.738335981136893,29.000174323709878
-3.5355449698738033,-0.062043725610888605,10.876404915672019
3.5126651575389856,-4.788462057953249,29.191058336068135
2.6146195128334506,-4.979950702287262,19.097035041748555
-1.9375771108305682,0.8197725728125769,17.631780168505752
-0.7856303152423563,3.245300199724465,14.9030886921401
0.6428372331447206,-5.501868924737138,27.818729049147656
0.49045639912157674,4.591490705074416,7.530318922536217
-1.906285393139316,0.5552840913481952,18.704401433953223
1.6103070105485282,1.0646523244043815,17.846926304853774
-0.521680762981195,4.410236911829636,16.932610803448657
0.3941757645437429,4.233517827454925,18.09506933612245
2.0472743939479856,6.737018564871897,22.64448057752208
3.2673963081771067,1.2875385677829827,22.424408306217632
1.8429888073236,-0.7980492841774047,14.465380168117559
3.110476608206641,2.4568260986659674,0.5093657256950523
-0.12643141760869137,-5.95110736698753,27.79236383259541
3.5825252335118476,-3.1427232139116947,22.859491560649445
-6.274951228455847,-2.6001336641775574,29.10935500370607
2.8437561752210403,3.3523136587053908,9.338845082031304
1.2046815991418345,2.368384240803476,16.911185345768587
0.1349596821510919,-1.9512424990716046,0.6821479727897495
-5.198457804638345,0.8349979582542193,0.2951136100534424
3.0093534922035934,4.267525878408283,15.964585837909294
5.990597280710742,-2.5931201495765865,5.019408565031397
-4.6379278062303255,5.460817228881785,11.975822864574152
3.172066904517875,-1.7761826261744083,7.314443863402676
-3.2089627371351845,2.757023385221434,29.272369406063554
-4.221741299869692,5.040694101162543,13.167637451151792
-0.3105235739556906,0.6367075885811815,9.48055958325269
4.324720753705537,2.081279665223915,5.211056346060603
2.6706129592050876,2.8807046681916306,6.8885497203794746
-4.532820572249556,4.579000567162324,28.16336961393
0.036309532451923386,6.586571346724141,28.941989558366807
0.36347640468562226,4.837373863799375,25.184716061750013
0.363862661306899,5.976693158433779,27.43088997214075
-0.20998283582932942,-6.957157459894887,24.17385960061587
2.8736115432261116,-0.039030023231850744,2.954230281297072
-1.0605773122406486,3.5575272105618283,12.14862693584908
3.469541557255109,-5.797043015489325,2.9319747462774535
2.2082324702310556,-6.2715207799668375,20.734506296214104
-3.3541807979666576,4.054099408432649,10.942116317279975
2.3189115330174244,5.90334674480942,18.34591145043396
-0.01391170290702834,-1.2361281548055985,8.162216848043528
3.571629279405341,-1.7187853422622135,2.8142117976196026
-4.481942810335538,1.2241100768794557,23.433039308371864
-4.90777206138292,4.80133597906039,18.304913390870713
-3.4985197324407125,0.9265650765869071,22.6961338793952
-2.1934230897349165,6.277319460063491,10.394575286026644
0.8823867402088192,2.8495182900145686,18.892163115896214
-2.7698329741156287,5.003050724343836,29.57885447509476
-1.6985411855523938,4.876656539432436,19.05071396791037
0.8414323495897865,5.930868218277707,17.19922421500089
-5.344584960731432,0.1397049638068141,6.2815797866985355
-0.866306874244559,3.279962480585877,13.552138158084409
6.804603415794555,0.25562254529541406,11.011998368796988
-1.125912414291856,-3.566331405793913,11.142072063930488
0.8237658360282961,-1.8900909039211593,7.884642020859454
1.4570996094227373,3.794106773967697,16.43394157068994
-2.007318797096852,-5.844660271189105,4.316350156274813
3.725593671060935,-0.8474308159058951,24.588166993607153
4.851102930780226,-4.498329053331239,9.278609954612971
3.9972923658499595,1.6855152460446359,6.92508996912128
4.9432348357009195,3.956086222123472,10.23354032563517
-4.481934744707574,-2.490576291709002,21.07498708789928
2.719739982846161,1.868785943450061,25.48489649366405
-1.3254164781298612,-1.5539298783005422,20.18720974904112
-0.29504920076486246,-1.0849276091277535,9.746938814143531
4.366008375968391,-4.652470590794745,12.335227846947106
1.4167342004944927,-7.046125911428815,2.0721151182308297
3.6807320127866716,3.537982979010137,15.089869408207381
-2.6139979570016596,1.1462970794130438,19.721630760133824
-4.9479758160004295,0.9808328696152081,18.361888699188807
-3.3347920029346856,-3.503535193746644,6.121317839579864
-6.418653579567087,3.260166706703651,8.623355821024198
2.2704127615892213,-3.7383282973884655,10.207834388873549
2.029891572088402,5.634719796086144,13.188049892886152
5.7676154617646285,2.810070761146548,1.4195750837389032
0.4417250570124536,5.8424973901806965,26.12536443058808
5.393954486788425,-2.463177694638588,2.913742307022532
1.9025155062620596,1.3234101213332081,21.477530442503216
2.7016961211262105,-5.481349891295136,9.73012106444732
6.776925943338585,1.649229816683538,0.8495554433483987
0.5310364987227681,-2.5348676064442404,29.677772574978675
-0.18029631438637087,1.8626468011563175,17.678241204676127
-5.938746509986266,-2.707249499555386,7.980052971843455
4.414892064142758,-2.4404696693211494,9.036590394715304
6.471065833833536,-0.6453978565226328,23.81389451915192
0.9560945974940369,6.852027299716513,8.687220532854314
-0.8030166770146795,1.4322774747004026,12.528455172413729
-0.7187555301877563,0.9883669074597725,15.937343383307615
4.495295464217124,4.569225317000415,21.600713207955575
-1.935511931330594,3.9753144595097303,14.64483234023203
4.315910688290265,-5.896542793640209,7.588497243874509
-1.507504160206315,-0.19424181985770134,18.29344499011168
-6.536965752679371,0.7393266968005955,29.79526836240446
1.2329573104746292,-5.480557367819412,3.4199872696152434
-6.00480704234181,0.5418970449440632,4.45175573548696
3.5297022343511815,-1.1161425577223874,22.76437592044607
-3.522906472059483,1.1164820834334717,29.526099710104674
2.439557145677746,3.8144547708398675,8.0213829287097
-5.464947759739267,-0.011004003605143378,14.561342278383055
0.8071684309842095,-4.271040352538503,18.37318986394001
2.2814202740405927,-0.47108198418164804,19.675135229253062
5.9824004824854216,-3.6466858313575803,21.048288263423373
-1.4557877785842712,6.401058566750624,25.185143297207567
-1.1104278863890713,-2.1117347998550793,2.209043143433899
7.096836131929447,-1.0152244841616707,20.573668208270817
-3.576216776465275,-1.642769011795469,29.224571387789403
5.340645337241902,3.8012147463717176,24.35575588563744
-1.2418519542336817,-7.1942762389563795,17.38523002512405
-4.489570956792525,2.430734975698505,5.125729715028061
-1.7227999599848955,-4.50273200978082,24.905775780189487
-1.1961924761691138,2.937732587892352,10.308057027777052
-6.556198193343496,1.76000720932094,10.992108018807317
5.779840235187102,-3.0085943745440926,15.542060702640084
0.4992600004642333,6.09796233669516,15.81388009503793
2.8523059448625094,-1.9266590479477503,27.09282901744541
-5.237462136664282,-0.7639619797431437,19.834531309719093
-1.7000798940175759,3.775773508391261,17.682461784142994
-0.6827509267617067,4.9200798020424195,3.920705786837555
2.4750470799710405,3.7811050113595814,26.29581889772476
0.10974117863349173,-1.8067270679266274,10.008132740536432
0.8522580949055136,-3.027923615065116,25.601860847896926
6.219816149793497,1.502493562585955,19.481371043827792
3.024302408369214,-2.5493967198780974,17.380227817462437
-1.2405193419738736,-2.18442717768369,9.620555498230608
-1.3669520252717655,-1.9264487401034711,29.07055963846726
-5.6869318734617735,-4.351544546665968,22.105951972601883
6.346275654635181,-0.2307710545817173,3.2367502803990886
4.172457989727556,3.8726485684795664,8.339217752705384
6.101164514774437,0.47016269185230486,13.103141283929219
0.886224351506917,-0.5691264241290713,10.848468613159264
-0.05264425420418278,4.519887743753514,15.746384874638304
3.652458681328535,2.0748722461212035,19.950188841751622
3.27370897378079,-5.265323453987728,20.44017106051465
1.4158055523363484,1.1295065313405563,4.182206947813631
1.551707676469129,-0.3465575429661267,28.598398762864676
-3.981628436592217,-2.057916230190372,8.556547060001492
3.1470868826467973,6.2601891269836525,26.953482917494718
5.498490535907752,-2.6055393136731198,26.27625693149933
3.2861327599357066,5.364291150226695,9.771024734115475
3.5825210761289767,1.8146392397457258,28.096820069635704
4.6326033117524075,4.7047773270495385,29.408427648037044
0.31275778320712255,2.0252455953712993,15.097816335553384
0.4373296220166156,4.739414223592475,19.971305339814464
-7.3006230594942005,0.2395950036853126,1.0060583520136934
-6.562752266506496,-3.303485287002248,10.526338913016142
-3.8034345827907026,2.7519427557512564,20.02076426108799
3.839978999918649,1.24349703039272,29.175375322120768
-4.169722018555802,5.901500062372943,2.3283384566318177
-1.1927691874233994,4.860367814546741,2.20859750083376
-3.5556935591292125,6.310499139304673,11.407841271299162
0.14062764842282297,-0.08591607500360549,13.675652005440162
-6.597499927817018,0.6533439932063578,8.924678059850091
-2.8375241089126084,-2.510690391105271,21.80687434491293
-1.6082396305512985,-5.445666671933268,25.015251244073742
2.8068996887212,-2.9761656282758215,29.32349201200053
0.526485675399453,-3.3245432783289663,24.890448353317275
-4.315406199452198,-5.1529895779240515,13.31403288107277
2.933587741480789,6.4567155759671815,8.214437008256382
2.368540253238196,1.2720937941134842,2.9814076206887874
-5.1643308303824265,2.9343002422375113,16.759991027217175
-4.887577692876594,0.8920296535585963,2.937089094007095
-2.1754915064223175,6.0806420210042225,7.783242397269845
3.0770012658712993,-2.2294067188693543,27.18096518781217
2.435689420253649,-2.3165781180116802,26.269152501842516
2.545866018128704,5.683360648017796,24.902776145181285
1.0174023155931147,-1.1639323057241844,28.482469380633475
-1.8969128345855806,-5.452696105554612,12.59842307150155
2.3268478824017103,3.5689534406983108,20.02913966964913
-1.3326410951153322,5.286297810658036,19.775160963526837
-1.0722460087343109,0.8370019512162241,22.682583222520883
4.110218945285235,-5.934764667620899,20.498248265910934
1.3651432911526593,1.9696661412710958,3.109168298388033
-2.010868434974727,5.515217143594881,3.7908238238710634
0.15058247626425864,-5.627090191185862,27.14005436420955
-1.716616128188581,0.9586915843457687,18.417794521673997
-1.690926759653293,5.169991342162269,25.661880696164676
0.541881305932668,-1.013944330358392,24.786850708106012
0.6465059138405382,-4.039931798347922,3.6807374591972963
6.506759104324718,-1.8850445016095372,22.471721867476177
-0.461113115938753,-6.974792899873045,17.26555082403334
-2.680518175990733,-2.134240356269948,11.380684958020465
-1.9516497847445158,-0.479125748109691,6.294222952743547
4.906917913454919,4.987242493469272,15.804984851244232
-2.1940963613982043,1.4569871022414802,15.327359550222399
-6.021065649681545,2.206897951274789,12.587590743974893
7.005602794517931,-1.9127826644844212,3.021294465364556
2.3616755349769734,-5.216988620393034,6.955767891524321
2.8188511006879096,-0.5113065048363774,5.244438552867786
0.1163187108475567,5.490575362331383,14.624772257703693
1.5738877135964127,4.6229039795088385,27.92728011769546
-4.839728472302444,2.3119980698477525,18.322579649854923
-1.276471865461201,6.2104357515766155,21.17756428077631
2.9654718254316608,3.01490469929761,28.19333662125809
4.71512302732024,5.197697394251657,28.725189958102703
-0.7397535321659221,0.9764966520384999,2.7917131984747567
-4.438322227793544,2.8801601987031398,17.336035337098934
-5.039945505624401,-3.565424303469945,13.315645657513063
-4.771548442477295,3.3780231726849954,26.19811353493319
2.360964980574251,-3.522273721910472,9.270027308430516
-1.088647984759427,4.0851119368226865,8.432378618385467
-2.1892366925680937,-6.711804092447813,25.328633203485015
-1.6063925693528558,4.803655387181164,25.90457141771311
4.463782025067705,-3.8045978561898335,4.22921683417809
0.03001569433807773,4.480884471371322,8.634087072264581
-1.772024941899363,4.922731971661957,19.52456423779489
5.555301105686142,4.612307290290705,15.347477485989613
-6.062670472138779,-3.0597533635009553,27.364822657964705
-0.5960663507993,2.1169219325579456,19.48971219764922
0.4651265203502509,2.2752370998312883,3.042480984390351
5.719729235828074,-3.1617261181573206,7.246594874957858
2.9351856748043135,6.469691471800301,26.861357752043595
1.9673396507287326,3.3424841960424843,18.29951501879302
-0.9096024105581172,-3.0576300500938856,0.5555692580943117
-1.7533073200036886,-6.689950835797467,25.49333759507458
0.3648943928607132,-4.5552089895787935,26.456078408097223
-2.3932781980188276,-3.4559285363471335,0.3145219330142768
-1.381570615731658,-4.73046698579351,25.974663018178134
-5.408413239384523,3.993518755866234,23.376649776604264
0.322058838770835,-6.396574371379498,17.884269011483727
-3.8926955869331565,4.5398341189970335,12.797518747125608
-5.8681826418586605,1.676613149715721,5.149906818167026
7.108193433054801,0.23941423451775645,19.4652771189769
-2.069171686104688,4.964070143991821,8.609078494171303
-4.157640644029694,-3.3110228850046965,6.941387887460636
0.22402850137158117,1.8169182716800258,10.913647051550873
2.3892859841618317,2.6656327834642783,23.19939796762781
-5.409467969156199,-3.9102002362647763,6.499970563256021
4.589300168448859,4.4424618336562745,12.992318359227472
-2.5023789055161285,4.848886496310619,18.296470386771013
-2.7655002949255563,0.09864536745081384,26.967936836640188
2.595074787668467,-5.540779299807852,11.935553883208975
2.6078132854890774,-3.374298382291093,13.78074139679702
-0.6924314715582529,0.6419300559730504,16.805534283595513
-0.11650264902618505,-4.937901458522137,15.749496294924068
4.3411001517852785,-0.610752159091538,19.260942153836943
1.6414624601081986,-4.563637086029386,4.084179332210858
0.9715346807094981,5.428558394332773,27.091082051825072
-3.7031106819270914,1.9178838179774789,8.886065299246948
-0.565796126447243,-0.8115243778305276,22.593288670234884
6.991657186860135,0.0024300830344890917,3.9768346936815178
-0.5187483368160458,-7.1453406056659095,25.16168822253962
0.7868257212857407,7.047643019553229,18.553497291835804
-0.7890883699934421,-4.8858517678415625,22.832133040310605
-1.9245576842087158,-4.863252604474147,4.526057358812098
-4.71101115997201,1.9715825274623937,21.268774867197944
-3.423716084276677,2.2418280293004633,1.8436680709883102
2.3016472656306624,3.9304916667403775,20.180849886330495
-5.137510320230131,4.59883461611148,22.428439703754176
-2.288775110625262,-2.8966446446101743,11.967382525059083
3.3147078637410794,-3.814659315083504,0.37134787082464205
3.585213599894736,6.212764452905482,28.32753565182206
-4.834944789936198,3.3057901812314956,2.5866214549052247
5.611002292843115,3.8644900049672373,21.78955847241436
-4.386837376565642,3.9040170336577726,22.293723452454053
-1.3428444449835464,-3.0339759928942605,22.30210874900464
6.327803078911825,-0.35166630304178087,2.148186146677089
-4.811185800513427,-2.454006234298474,16.524905073849297
-1.1638034607249608,3.6179900807718006,21.72380750652669
3.381601667517781,-5.602811553075576,10.179272173658
-2.2923135860181314,5.633991901564482,7.61808917023862
-4.5953455222606205,-2.2167278487116806,16.41058833361954
-3.695011565532218,-0.44718769446053425,0.3107466779708423
-3.4219301262020245,5.238110777366662,26.4660468747135
2.776145092985702,2.168192827974512,1.557363730568333
-0.46890031217857675,0.537231376851159,21.163987827718888
-3.6595435601913695,6.251588582850233,21.11700579628178
-3.648982801824238,4.277078174904146,23.630990276747646
