-0.05537023,37.43863101,202.41512158,0.00000000,250.00000000,0.00000000
0.04207551,-338.18984252,119.48915429,250.00000000,0.00000000,0.00000000
-0.00160512,262.95558082,-177.50242987,0.00000000,0.00000000,250.00000000
-0.05062980,-116.04802515,89.97677381,0.00000000,250.00000000,0.00000000
-0.03652648,-111.73447607,-96.14502864,0.00000000,250.00000000,0.00000000
-0.05663278,-230.13901769,-210.90748179,250.00000000,0.00000000,0.00000000
0.08610167,150.07453007,-54.82540608,0.00000000,0.00000000,250.00000000
-0.02445330,-187.39989972,-13.15784075,250.00000000,0.00000000,0.00000000
0.14316423,-38.49574810,45.88882242,0.00000000,250.00000000,0.00000000
-0.09555005,112.93237079,131.31882226,0.00000000,250.00000000,0.00000000
-0.06054916,251.18864376,-42.37704279,0.00000000,0.00000000,250.00000000
-0.01951346,-111.03289052,48.81149310,0.00000000,250.00000000,0.00000000
-0.03579667,134.69688805,-66.20576752,0.00000000,0.00000000,250.00000000
-0.00689525,370.14072055,51.51844473,0.00000000,0.00000000,250.00000000
0.01472255,283.87350083,94.61499564,0.00000000,0.00000000,250.00000000
0.04982799,-181.06680225,-18.10852711,250.00000000,0.00000000,0.00000000
0.02588565,54.40580852,66.06404318,0.00000000,250.00000000,0.00000000
-0.00470429,14.72259413,161.40709000,0.00000000,250.00000000,0.00000000
0.01059240,51.53510359,18.54156902,0.00000000,250.00000000,0.00000000
-0.05685333,-196.51282527,235.68271097,250.00000000,0.00000000,0.00000000
-0.03999918,-94.19321388,53.07616123,0.00000000,250.00000000,0.00000000
-0.02672614,106.69090008,-42.72115115,0.00000000,250.00000000,0.00000000
0.01579214,-179.19132347,-7.38923239,250.00000000,0.00000000,0.00000000
-0.01221807,-227.93807078,-119.13740330,250.00000000,0.00000000,0.00000000
-0.02047573,-100.33810577,-123.84155291,0.00000000,250.00000000,0.00000000
0.05652035,-270.12558473,-149.41215446,250.00000000,0.00000000,0.00000000
0.01610957,52.79332043,-130.68652491,0.00000000,250.00000000,0.00000000
0.02689242,113.84637119,24.63160939,0.00000000,250.00000000,0.00000000
0.10029604,-17.50738070,96.88244293,0.00000000,250.00000000,0.00000000
0.06005558,-352.21546465,-85.25715633,250.00000000,0.00000000,0.00000000
0.03748377,32.32036925,39.30273522,0.00000000,250.00000000,0.00000000
-0.01843014,-397.04013009,96.18574477,250.00000000,0.00000000,0.00000000
-0.02636466,20.91257448,-238.77316882,0.00000000,250.00000000,0.00000000
0.06370265,-341.79862830,-138.20341099,250.00000000,0.00000000,0.00000000
0.03301232,-142.95999507,19.21396393,250.00000000,0.00000000,0.00000000
0.04707750,-562.94754736,14.77138175,250.00000000,0.00000000,0.00000000
-0.09621058,-158.24646505,-16.22944511,250.00000000,0.00000000,0.00000000
-0.06351935,-50.83267252,97.35363077,0.00000000,250.00000000,0.00000000
0.03764494,283.51252824,110.19427897,0.00000000,0.00000000,250.00000000
-0.06072910,-372.21521964,99.45564796,250.00000000,0.00000000,0.00000000
0.05903587,216.73959609,-57.28957029,0.00000000,0.00000000,250.00000000
0.08371126,-255.63188559,-88.07084982,250.00000000,0.00000000,0.00000000
0.02999162,120.99689700,43.88362919,0.00000000,250.00000000,0.00000000
0.10777016,-18.87913316,13.23331323,0.00000000,250.00000000,0.00000000
-0.02084774,395.57234778,0.16269295,0.00000000,0.00000000,250.00000000
-0.04591970,76.44393565,-162.67831142,0.00000000,250.00000000,0.00000000
0.04142024,194.94992234,12.41359870,0.00000000,0.00000000,250.00000000
0.03901376,145.01360926,161.64494179,0.00000000,0.00000000,250.00000000
0.04015345,-311.12063348,-88.87583529,250.00000000,0.00000000,0.00000000
0.00403251,-109.77616558,124.23347700,0.00000000,250.00000000,0.00000000
-0.02129011,96.89674100,222.08981338,0.00000000,250.00000000,0.00000000
0.01104932,-199.88033114,-15.92297562,250.00000000,0.00000000,0.00000000
-0.02900678,-118.28851391,-10.54182663,0.00000000,250.00000000,0.00000000
-0.05096726,412.93858176,-115.53990381,0.00000000,0.00000000,250.00000000
-0.01395618,-155.26509830,5.41845417,250.00000000,0.00000000,0.00000000
0.04245966,-237.78448775,262.98451479,250.00000000,0.00000000,0.00000000
-0.01643133,-171.64460199,83.21698309,250.00000000,0.00000000,0.00000000
-0.03870326,219.11804763,120.71660566,0.00000000,0.00000000,250.00000000
-0.03912346,-225.45047588,-114.07682474,250.00000000,0.00000000,0.00000000
-0.00494646,132.68931291,-1.07056062,0.00000000,0.00000000,250.00000000
0.06451824,-213.03960862,-36.50802894,250.00000000,0.00000000,0.00000000
-0.06170982,620.19898291,-3.40582072,0.00000000,0.00000000,250.00000000
0.03633272,65.72975703,181.25850392,0.00000000,250.00000000,0.00000000
-0.03492057,-8.36993474,32.94042202,0.00000000,250.00000000,0.00000000
0.02365104,-204.69495364,74.18432278,250.00000000,0.00000000,0.00000000
-0.02880709,16.95100205,157.97703578,0.00000000,250.00000000,0.00000000
0.03188701,-163.06057262,-84.80486494,250.00000000,0.00000000,0.00000000
0.02651119,-459.31952502,61.08190068,250.00000000,0.00000000,0.00000000
0.00056053,108.61741071,202.30940636,0.00000000,250.00000000,0.00000000
-0.02528384,-33.34394888,-72.70756183,0.00000000,250.00000000,0.00000000
-0.04401550,-323.99759744,57.99561548,250.00000000,0.00000000,0.00000000
0.09564935,-74.49917285,-177.85166904,0.00000000,250.00000000,0.00000000
-0.08773841,-177.78633761,47.71805499,250.00000000,0.00000000,0.00000000
0.00475544,-43.41351792,-51.89464227,0.00000000,250.00000000,0.00000000
-0.07464942,216.91849909,-13.89435735,0.00000000,0.00000000,250.00000000
-0.04102370,-51.43611485,-155.87127315,0.00000000,250.00000000,0.00000000
0.01029219,43.76476208,214.15460918,0.00000000,250.00000000,0.00000000
0.04974629,144.56947023,79.53877304,0.00000000,0.00000000,250.00000000
-0.02033681,-421.92281061,97.49309214,250.00000000,0.00000000,0.00000000
-0.00341710,-236.95648197,-92.48299075,250.00000000,0.00000000,0.00000000
0.01729580,-179.88180443,-35.96600281,250.00000000,0.00000000,0.00000000
0.04725404,-283.47878824,121.09748879,250.00000000,0.00000000,0.00000000
0.00150582,244.99015328,26.66850255,0.00000000,0.00000000,250.00000000
-0.01417830,-37.15889703,41.56758366,0.00000000,250.00000000,0.00000000
-0.03527781,-110.87815537,-7.64210165,0.00000000,250.00000000,0.00000000
-0.05154595,181.31296700,-39.84929887,0.00000000,0.00000000,250.00000000
0.00421305,-366.79323640,-139.57621358,250.00000000,0.00000000,0.00000000
-0.02798371,142.30895296,-35.72269627,0.00000000,0.00000000,250.00000000
0.00634533,-237.53419279,-79.44924087,250.00000000,0.00000000,0.00000000
-0.06334003,-198.41873865,-185.70257669,250.00000000,0.00000000,0.00000000
-0.02265680,-296.87687833,70.67917239,250.00000000,0.00000000,0.00000000
0.01710097,103.09018655,-22.38362171,0.00000000,250.00000000,0.00000000
-0.05906276,-227.31942439,3.09822948,250.00000000,0.00000000,0.00000000
-0.08609551,159.78129135,-53.22098899,0.00000000,0.00000000,250.00000000
0.01509744,18.65198778,163.50497773,0.00000000,250.00000000,0.00000000
-0.05694632,173.27028333,-5.57625559,0.00000000,0.00000000,250.00000000
-0.09676541,11.14359620,-15.15511691,0.00000000,250.00000000,0.00000000
-0.07064637,535.99204346,-28.98692235,0.00000000,0.00000000,250.00000000
0.15329573,51.36077458,-144.51734416,0.00000000,250.00000000,0.00000000
0.04362716,411.15189208,50.59454187,0.00000000,0.00000000,250.00000000
0.01271564,103.12741236,-15.34987254,0.00000000,250.00000000,0.00000000
-0.02117597,-290.79417846,20.93845441,250.00000000,0.00000000,0.00000000
-0.08772222,188.06009239,110.47648527,0.00000000,0.00000000,250.00000000
0.11575032,47.45172909,150.71949034,0.00000000,250.00000000,0.00000000
-0.02482002,27.73074956,93.08750590,0.00000000,250.00000000,0.00000000
0.06110616,-82.06388386,115.41367875,0.00000000,250.00000000,0.00000000
-0.06220835,188.26689617,-43.85199119,0.00000000,0.00000000,250.00000000
0.07485516,122.67044678,133.93910184,0.00000000,250.00000000,0.00000000
-0.03658285,30.63562554,-66.59552918,0.00000000,250.00000000,0.00000000
0.07322039,235.11554228,-161.31251576,0.00000000,0.00000000,250.00000000
0.00670783,-176.15180570,86.69244372,250.00000000,0.00000000,0.00000000
0.01940251,107.97304751,-26.50093736,0.00000000,250.00000000,0.00000000
0.00715844,261.46520216,-179.44351846,0.00000000,0.00000000,250.00000000
0.00073087,210.70592328,-130.01905640,0.00000000,0.00000000,250.00000000
-0.00434886,115.70541890,36.86092147,0.00000000,250.00000000,0.00000000
0.08345100,-93.55604882,-89.04740796,0.00000000,250.00000000,0.00000000
-0.02453660,-87.51056218,24.90195489,0.00000000,250.00000000,0.00000000
0.09337135,0.56014488,-67.85597804,0.00000000,250.00000000,0.00000000
-0.00864066,142.58099200,-108.50738252,0.00000000,0.00000000,250.00000000
-0.01164495,-15.99880772,229.67899631,0.00000000,250.00000000,0.00000000
0.06978371,30.09910447,-268.06045713,0.00000000,250.00000000,0.00000000
-0.04899652,442.50359683,-0.77404749,0.00000000,0.00000000,250.00000000
0.00822099,53.40099433,-66.42006110,0.00000000,250.00000000,0.00000000
-0.01305019,216.31037435,-25.87714416,0.00000000,0.00000000,250.00000000
-0.01238470,396.16336280,89.49216002,0.00000000,0.00000000,250.00000000
-0.00663451,-283.99179128,-124.18245974,250.00000000,0.00000000,0.00000000
0.01128207,-32.95402617,27.05067467,0.00000000,250.00000000,0.00000000
-0.02826131,-10.81980308,39.39055749,0.00000000,250.00000000,0.00000000
0.06138937,80.25115389,-15.13428219,0.00000000,250.00000000,0.00000000
-0.09455596,365.90170355,41.29454051,0.00000000,0.00000000,250.00000000
0.06792065,-19.68751651,-87.99672852,0.00000000,250.00000000,0.00000000
-0.00002041,-26.89436969,-35.44723571,0.00000000,250.00000000,0.00000000
0.00695399,248.09373145,39.84576708,0.00000000,0.00000000,250.00000000
0.00448666,389.45978960,-48.30673344,0.00000000,0.00000000,250.00000000
0.06162316,-94.36956293,-172.02402754,0.00000000,250.00000000,0.00000000
-0.05047086,-181.12488278,43.41816018,250.00000000,0.00000000,0.00000000
0.06494311,-173.17459802,118.37082199,250.00000000,0.00000000,0.00000000
0.06067312,-342.61389424,-43.61216617,250.00000000,0.00000000,0.00000000
-0.01302924,305.99322657,-100.83402322,0.00000000,0.00000000,250.00000000
-0.02214613,-294.77833637,47.98303958,250.00000000,0.00000000,0.00000000
0.02352061,-160.60872770,133.46390821,250.00000000,0.00000000,0.00000000
0.06446574,-62.29935883,-73.74738643,0.00000000,250.00000000,0.00000000
0.10676123,31.69418685,80.70993087,0.00000000,250.00000000,0.00000000
-0.09746209,-169.75735050,-61.70262001,250.00000000,0.00000000,0.00000000
0.04657146,-271.97249836,93.08270355,250.00000000,0.00000000,0.00000000
0.08270123,-243.46487104,-21.10531928,250.00000000,0.00000000,0.00000000
-0.07881051,-133.59747626,-154.35741791,250.00000000,0.00000000,0.00000000
-0.07257145,-294.43155736,-89.46509276,250.00000000,0.00000000,0.00000000
0.09681657,235.61472311,108.81972193,0.00000000,0.00000000,250.00000000
0.08564610,-288.30923503,208.56288335,250.00000000,0.00000000,0.00000000
-0.03366958,-21.42071591,-72.53681824,0.00000000,250.00000000,0.00000000
-0.02557265,207.85886711,47.00844934,0.00000000,0.00000000,250.00000000
-0.02218664,-4.38296416,121.93925887,0.00000000,250.00000000,0.00000000
0.00890996,-125.61453175,-69.41111728,250.00000000,0.00000000,0.00000000
0.06106697,120.64005976,-2.32373262,0.00000000,250.00000000,0.00000000
-0.01160868,267.33197349,-244.44259745,0.00000000,0.00000000,250.00000000
-0.03999605,-237.10120530,224.22906828,250.00000000,0.00000000,0.00000000
-0.00211412,348.25463541,-1.51868727,0.00000000,0.00000000,250.00000000
0.02405503,68.29371052,-89.31029119,0.00000000,250.00000000,0.00000000
-0.04620472,259.43591063,-134.22883279,0.00000000,0.00000000,250.00000000
0.00244724,-3.56559088,-54.40322472,0.00000000,250.00000000,0.00000000
-0.00433352,73.47417331,-107.94703235,0.00000000,250.00000000,0.00000000
0.08982257,414.54777045,37.54273458,0.00000000,0.00000000,250.00000000
0.03630595,251.25268240,46.37610932,0.00000000,0.00000000,250.00000000
0.01678616,169.75337024,96.78708201,0.00000000,0.00000000,250.00000000
0.06630587,57.39420627,43.38354814,0.00000000,250.00000000,0.00000000
-0.02527847,5.81284932,86.38412440,0.00000000,250.00000000,0.00000000
-0.07498077,-52.85212999,28.19613927,0.00000000,250.00000000,0.00000000
-0.01388151,-186.70774694,85.13461581,250.00000000,0.00000000,0.00000000
0.07968414,50.20529755,-16.30279289,0.00000000,250.00000000,0.00000000
-0.04702448,9.29708634,-24.48791738,0.00000000,250.00000000,0.00000000
-0.09110539,105.79355774,8.98377340,0.00000000,250.00000000,0.00000000
-0.08901696,123.53558690,91.35682454,0.00000000,250.00000000,0.00000000
0.04400851,161.69552669,-30.49044949,0.00000000,0.00000000,250.00000000
-0.00534636,-16.93506735,-70.98025611,0.00000000,250.00000000,0.00000000
-0.00472595,224.43960357,-43.97718385,0.00000000,0.00000000,250.00000000
0.05979550,-30.74058021,192.99257682,0.00000000,250.00000000,0.00000000
0.04455436,-516.36387505,105.45071595,250.00000000,0.00000000,0.00000000
-0.04857842,225.68920306,79.51109962,0.00000000,0.00000000,250.00000000
-0.00149887,52.51675697,-7.43808538,0.00000000,250.00000000,0.00000000
0.00125911,-539.34182953,-96.71111804,250.00000000,0.00000000,0.00000000
0.04323994,344.37918410,172.16271004,0.00000000,0.00000000,250.00000000
0.01338989,112.23097250,6.14878224,0.00000000,250.00000000,0.00000000
-0.11794151,-318.20257655,-266.19655844,250.00000000,0.00000000,0.00000000
-0.02586299,116.00569221,61.31420692,0.00000000,250.00000000,0.00000000
-0.07394113,-26.33615633,-67.71136126,0.00000000,250.00000000,0.00000000
0.00556101,34.44624578,37.99604708,0.00000000,250.00000000,0.00000000
-0.00064770,-187.98221596,34.21659308,250.00000000,0.00000000,0.00000000
0.01467427,-533.93121227,19.91511531,250.00000000,0.00000000,0.00000000
0.03195284,249.99681315,63.55549313,0.00000000,0.00000000,250.00000000
-0.02454560,80.84778112,-79.26068256,0.00000000,250.00000000,0.00000000
0.05774849,-356.56953399,-172.50812679,250.00000000,0.00000000,0.00000000
-0.01188547,-79.63582435,-30.66624947,0.00000000,250.00000000,0.00000000
0.04757812,57.30549839,-3.78722509,0.00000000,250.00000000,0.00000000
-0.06486815,-4.59410412,49.09311763,0.00000000,250.00000000,0.00000000
-0.01902895,-114.26448311,-0.43804578,0.00000000,250.00000000,0.00000000
0.04159907,382.08485766,96.37440406,0.00000000,0.00000000,250.00000000
-0.04424647,111.40850862,49.68795630,0.00000000,250.00000000,0.00000000
0.03297467,180.78746622,-259.07661508,0.00000000,0.00000000,250.00000000
0.03341024,-8.69782769,71.06087836,0.00000000,250.00000000,0.00000000
-0.01944499,88.51388859,224.51564490,0.00000000,250.00000000,0.00000000
-0.00460572,-210.99541778,133.06869255,250.00000000,0.00000000,0.00000000
0.03875894,-83.35570794,-49.63756039,0.00000000,250.00000000,0.00000000
-0.04817041,-75.03811863,-28.80372418,0.00000000,250.00000000,0.00000000
-0.00640594,270.37153630,-152.64120194,0.00000000,0.00000000,250.00000000
-0.05713777,-237.61552619,92.75927956,250.00000000,0.00000000,0.00000000
-0.00927549,136.56402298,-24.98093146,0.00000000,0.00000000,250.00000000
0.02204120,-29.68248388,-56.65134603,0.00000000,250.00000000,0.00000000
-0.09036597,-461.38521351,-67.19866679,250.00000000,0.00000000,0.00000000
0.00625655,-187.89848199,51.89753333,250.00000000,0.00000000,0.00000000
0.04618066,82.50255903,85.52974655,0.00000000,250.00000000,0.00000000
-0.07907273,-33.66228387,-62.44393335,0.00000000,250.00000000,0.00000000
0.04146164,-250.54282521,58.70348023,250.00000000,0.00000000,0.00000000
-0.00700838,-48.97764121,51.14036368,0.00000000,250.00000000,0.00000000
0.02718020,-42.00904345,16.90063835,0.00000000,250.00000000,0.00000000
-0.04938832,-30.86585321,5.84525104,0.00000000,250.00000000,0.00000000
-0.05181360,182.81239983,-47.01535414,0.00000000,0.00000000,250.00000000
-0.03673381,-40.17834737,229.13816681,0.00000000,250.00000000,0.00000000
0.02427560,69.59837824,-47.75169659,0.00000000,250.00000000,0.00000000
-0.00015108,-35.45230329,-54.46012111,0.00000000,250.00000000,0.00000000
0.05044172,221.40570486,-70.16400195,0.00000000,0.00000000,250.00000000
-0.06729645,21.77617212,-29.92864412,0.00000000,250.00000000,0.00000000
-0.03180246,-160.79896733,84.50524945,250.00000000,0.00000000,0.00000000
-0.01071014,-156.68462563,58.51406675,250.00000000,0.00000000,0.00000000
-0.00567226,36.79809099,176.45464369,0.00000000,250.00000000,0.00000000
-0.05551001,-7.47388745,-74.21389641,0.00000000,250.00000000,0.00000000
0.01594976,263.90561592,132.86697527,0.00000000,0.00000000,250.00000000
-0.07953927,183.07506598,-157.41285540,0.00000000,0.00000000,250.00000000
-0.07786082,-66.15771957,-114.92548357,0.00000000,250.00000000,0.00000000
-0.04811970,-84.64369833,-164.33124147,0.00000000,250.00000000,0.00000000
0.04024156,49.24362635,78.44859317,0.00000000,250.00000000,0.00000000
0.00074044,270.70199234,198.29015951,0.00000000,0.00000000,250.00000000
0.06380977,115.56981126,1.45857437,0.00000000,250.00000000,0.00000000
0.01157914,30.20411576,-8.62362354,0.00000000,250.00000000,0.00000000
0.05575540,396.12711595,-13.37099050,0.00000000,0.00000000,250.00000000
-0.07916240,-51.28873726,-137.72224027,0.00000000,250.00000000,0.00000000
0.05113477,333.27471116,-120.86723919,0.00000000,0.00000000,250.00000000
0.04560409,-99.54942956,120.65777332,0.00000000,250.00000000,0.00000000
-0.03097903,-140.70351587,114.41921797,250.00000000,0.00000000,0.00000000
0.06471227,-370.80606902,131.71174391,250.00000000,0.00000000,0.00000000
0.01433773,176.22878321,-36.73987725,0.00000000,0.00000000,250.00000000
-0.05951729,-20.65520725,53.13730175,0.00000000,250.00000000,0.00000000
-0.03945565,-68.52500037,-190.55112082,0.00000000,250.00000000,0.00000000
-0.03643942,7.74272903,-32.50283269,0.00000000,250.00000000,0.00000000
-0.02628619,-31.07765923,216.65467939,0.00000000,250.00000000,0.00000000
-0.03120577,2.20825035,-82.58490736,0.00000000,250.00000000,0.00000000
-0.05466073,-106.84128939,-17.61908077,0.00000000,250.00000000,0.00000000
-0.10404476,-126.10716380,49.50796536,250.00000000,0.00000000,0.00000000
-0.00393643,267.89662690,-23.84271238,0.00000000,0.00000000,250.00000000
-0.03947115,48.73882746,-60.38289599,0.00000000,250.00000000,0.00000000
0.08350612,-405.17704026,211.31321320,250.00000000,0.00000000,0.00000000
-0.01674684,-71.23535021,42.20069721,0.00000000,250.00000000,0.00000000
0.03232510,-227.07755621,123.95247393,250.00000000,0.00000000,0.00000000
-0.03085061,-292.44195581,221.83299470,250.00000000,0.00000000,0.00000000
0.05212780,-192.53611704,22.43370774,250.00000000,0.00000000,0.00000000
-0.02214200,96.83854214,269.88667072,0.00000000,250.00000000,0.00000000
-0.00226879,-32.85897357,-72.13883206,0.00000000,250.00000000,0.00000000
0.06663172,89.32617462,-137.21607058,0.00000000,250.00000000,0.00000000
-0.03880214,275.55261937,83.57017780,0.00000000,0.00000000,250.00000000
-0.08076715,19.45874125,36.79229644,0.00000000,250.00000000,0.00000000
0.00350120,16.09477902,-13.87965952,0.00000000,250.00000000,0.00000000
0.02884557,-64.77999798,100.72852752,0.00000000,250.00000000,0.00000000
0.00961090,135.85123953,148.46503880,0.00000000,0.00000000,250.00000000
-0.01627109,74.21137641,-120.99224011,0.00000000,250.00000000,0.00000000
0.04294078,93.94095942,97.17737735,0.00000000,250.00000000,0.00000000
-0.01516943,307.89989740,43.30321526,0.00000000,0.00000000,250.00000000
0.04693553,-158.52564622,-82.58364789,250.00000000,0.00000000,0.00000000
0.00727031,-55.75147380,-35.28451627,0.00000000,250.00000000,0.00000000
0.01168586,562.77807604,-32.48821634,0.00000000,0.00000000,250.00000000
-0.03494712,112.12952628,-8.36001017,0.00000000,250.00000000,0.00000000
0.03066224,48.65936290,162.26296701,0.00000000,250.00000000,0.00000000
-0.00706255,-104.06591564,-58.08057384,0.00000000,250.00000000,0.00000000
0.01844943,-57.70468754,92.64460259,0.00000000,250.00000000,0.00000000
-0.01064994,135.39383268,-65.79654111,0.00000000,0.00000000,250.00000000
-0.03479289,265.31216501,-131.22632845,0.00000000,0.00000000,250.00000000
-0.00898882,142.30473574,-168.18391390,0.00000000,0.00000000,250.00000000
-0.01239690,-367.81991253,112.23472545,250.00000000,0.00000000,0.00000000
0.07677962,153.97286801,22.94269955,0.00000000,0.00000000,250.00000000
0.01830013,305.09780286,81.77558149,0.00000000,0.00000000,250.00000000
0.00950093,-57.09262701,192.67781363,0.00000000,250.00000000,0.00000000
0.05430205,-113.23324556,36.95057478,0.00000000,250.00000000,0.00000000
-0.02685047,58.51318321,-263.91553899,0.00000000,250.00000000,0.00000000
0.01640068,-2.14147667,-24.03744705,0.00000000,250.00000000,0.00000000
-0.01846078,51.47176260,25.53856792,0.00000000,250.00000000,0.00000000
-0.01250992,141.15050608,61.83700928,0.00000000,0.00000000,250.00000000
0.05165471,325.63950091,-96.47159084,0.00000000,0.00000000,250.00000000
-0.07159388,-322.48211516,60.82784848,250.00000000,0.00000000,0.00000000
-0.01407782,268.75141408,-62.63495692,0.00000000,0.00000000,250.00000000
0.09901433,-173.33563735,1.93491778,250.00000000,0.00000000,0.00000000
0.00690511,374.49741879,21.66455073,0.00000000,0.00000000,250.00000000
0.03470091,64.71858838,97.47966561,0.00000000,250.00000000,0.00000000
-0.01116158,-81.50449401,108.23511157,0.00000000,250.00000000,0.00000000
-0.01436618,-10.90581507,44.45265095,0.00000000,250.00000000,0.00000000
-0.00109437,-17.23654081,43.00786522,0.00000000,250.00000000,0.00000000
0.00706620,-19.99109921,56.66905124,0.00000000,250.00000000,0.00000000
0.01782334,-52.77855810,-75.90891453,0.00000000,250.00000000,0.00000000
0.08288205,321.27991890,88.79955091,0.00000000,0.00000000,250.00000000
0.05514005,-20.54857091,85.28474314,0.00000000,250.00000000,0.00000000
0.01642150,320.88666775,-71.91300490,0.00000000,0.00000000,250.00000000
0.02921855,2.21825694,-62.57702123,0.00000000,250.00000000,0.00000000
-0.02993356,-221.37869439,-163.36833448,250.00000000,0.00000000,0.00000000
0.05338827,-145.74756006,-7.14053755,250.00000000,0.00000000,0.00000000
0.03254605,87.28706989,-182.41803124,0.00000000,250.00000000,0.00000000
-0.06833598,-287.48523736,-155.40283141,250.00000000,0.00000000,0.00000000
0.10614789,-384.76749789,-32.94010262,250.00000000,0.00000000,0.00000000
0.07347551,-164.96728242,-37.56214063,250.00000000,0.00000000,0.00000000
0.00188690,-282.53305773,-4.60830532,250.00000000,0.00000000,0.00000000
-0.08779943,81.55926937,-107.75048990,0.00000000,250.00000000,0.00000000
-0.04431910,110.01667010,52.10705928,0.00000000,250.00000000,0.00000000
0.00385725,-2.02578580,-106.16587034,0.00000000,250.00000000,0.00000000
0.08634532,-474.83790666,102.77463042,250.00000000,0.00000000,0.00000000
-0.02532360,-194.60149712,76.60780189,250.00000000,0.00000000,0.00000000
-0.02078883,-84.64743956,-150.04092096,0.00000000,250.00000000,0.00000000
0.07356138,259.18918349,-120.11778413,0.00000000,0.00000000,250.00000000
0.06251237,-79.42075764,-14.56848439,0.00000000,250.00000000,0.00000000
0.04198076,46.64502065,143.35702228,0.00000000,250.00000000,0.00000000
0.00774048,-84.67710108,-153.82169189,0.00000000,250.00000000,0.00000000
0.02295267,-412.00492228,42.90580329,250.00000000,0.00000000,0.00000000
0.04579753,-93.05580587,39.27103805,0.00000000,250.00000000,0.00000000
0.00712815,-344.81673038,6.08751554,250.00000000,0.00000000,0.00000000
-0.06192507,-253.31713596,64.17266791,250.00000000,0.00000000,0.00000000
0.03358203,-170.25637154,13.74802465,250.00000000,0.00000000,0.00000000
-0.03472144,-107.21436029,-26.82532286,0.00000000,250.00000000,0.00000000
-0.01667306,238.95760653,-102.88737112,0.00000000,0.00000000,250.00000000
-0.06491470,-299.04885625,-102.70970279,250.00000000,0.00000000,0.00000000
-0.03841663,-355.28401593,90.76388199,250.00000000,0.00000000,0.00000000
-0.02734413,-155.26251760,-67.78636969,250.00000000,0.00000000,0.00000000
-0.00721929,-343.41420328,69.81558907,250.00000000,0.00000000,0.00000000
-0.08400961,-277.65468370,69.53232538,250.00000000,0.00000000,0.00000000
0.05613265,111.70735347,-72.91451162,0.00000000,250.00000000,0.00000000
-0.01456162,-70.18220848,126.33863023,0.00000000,250.00000000,0.00000000
0.00822127,92.32263490,-157.78841328,0.00000000,250.00000000,0.00000000
0.04462808,-329.06264250,-126.97082460,250.00000000,0.00000000,0.00000000
-0.05180261,299.02188685,-43.70828829,0.00000000,0.00000000,250.00000000
-0.00751221,-207.89259296,-141.48251365,250.00000000,0.00000000,0.00000000
0.02302473,73.35472510,-211.78362512,0.00000000,250.00000000,0.00000000
-0.05045069,68.19931773,18.69908086,0.00000000,250.00000000,0.00000000
-0.04929844,-79.90748807,-125.46622070,0.00000000,250.00000000,0.00000000
0.01153978,54.80857759,90.10564781,0.00000000,250.00000000,0.00000000
-0.01022798,99.61976907,16.23499954,0.00000000,250.00000000,0.00000000
-0.10910041,-78.71120763,-69.36580133,0.00000000,250.00000000,0.00000000
-0.01552879,9.01207655,50.23912363,0.00000000,250.00000000,0.00000000
0.06375613,54.35852694,-76.71754666,0.00000000,250.00000000,0.00000000
0.03772587,156.58902750,-63.64557992,0.00000000,0.00000000,250.00000000
-0.09907856,224.53841050,34.84273282,0.00000000,0.00000000,250.00000000
-0.04203351,245.07771408,163.52669744,0.00000000,0.00000000,250.00000000
0.01145514,213.12685898,117.08063028,0.00000000,0.00000000,250.00000000
0.05443163,71.76849651,-221.47618367,0.00000000,250.00000000,0.00000000
-0.02071986,-151.76472458,31.87801215,250.00000000,0.00000000,0.00000000
-0.10188632,291.21243537,-63.58157976,0.00000000,0.00000000,250.00000000
-0.06563541,14.01700620,-65.09218079,0.00000000,250.00000000,0.00000000
-0.03671824,251.76419877,-94.14784591,0.00000000,0.00000000,250.00000000
-0.02468388,104.64014905,76.84171778,0.00000000,250.00000000,0.00000000
0.06722777,-490.15934133,258.46147543,250.00000000,0.00000000,0.00000000
0.01369069,509.71674807,-22.22744830,0.00000000,0.00000000,250.00000000
0.05578376,188.89886418,45.38446926,0.00000000,0.00000000,250.00000000
0.00054214,159.42742175,31.75094213,0.00000000,0.00000000,250.00000000
-0.03440476,-444.45329066,64.97064535,250.00000000,0.00000000,0.00000000
-0.09581679,235.88599682,-116.20050535,0.00000000,0.00000000,250.00000000
-0.00362083,63.87731316,-32.84193914,0.00000000,250.00000000,0.00000000
0.03086891,27.43109034,-12.37587208,0.00000000,250.00000000,0.00000000
-0.06702075,-107.26189328,-101.91452729,0.00000000,250.00000000,0.00000000
-0.03352998,171.68491137,10.27191060,0.00000000,0.00000000,250.00000000
0.00348356,273.93198984,82.92225960,0.00000000,0.00000000,250.00000000
0.01456619,-269.13564859,-26.73717479,250.00000000,0.00000000,0.00000000
0.04787136,-100.31936847,136.56740418,0.00000000,250.00000000,0.00000000
0.09493000,44.07859074,51.72795026,0.00000000,250.00000000,0.00000000
0.00413688,251.78672469,114.44392775,0.00000000,0.00000000,250.00000000
0.00020754,232.16222525,21.61167631,0.00000000,0.00000000,250.00000000
0.10341708,-167.10277362,50.45821372,250.00000000,0.00000000,0.00000000
0.02854883,177.13156899,-32.00528713,0.00000000,0.00000000,250.00000000
0.03083453,189.08582369,95.93239286,0.00000000,0.00000000,250.00000000
-0.06419938,141.11136867,-87.21283869,0.00000000,0.00000000,250.00000000
0.01982550,176.82134319,65.18580128,0.00000000,0.00000000,250.00000000
0.00688961,-38.66123293,28.43493673,0.00000000,250.00000000,0.00000000
0.04491471,-19.95696884,148.36421777,0.00000000,250.00000000,0.00000000
0.06705370,-296.80698166,82.60563497,250.00000000,0.00000000,0.00000000
-0.03345168,-206.11443743,100.11376443,250.00000000,0.00000000,0.00000000
-0.02675762,-157.52540196,-62.80184186,250.00000000,0.00000000,0.00000000
-0.02210273,-110.27474630,101.37357077,0.00000000,250.00000000,0.00000000
0.02432258,-487.75015335,-18.75395958,250.00000000,0.00000000,0.00000000
0.06850119,-450.67121593,70.68923787,250.00000000,0.00000000,0.00000000
-0.01111330,-358.99162439,-144.16619159,250.00000000,0.00000000,0.00000000
-0.00617300,-26.20446483,55.42018511,0.00000000,250.00000000,0.00000000
-0.03573553,135.56207992,-123.40691895,0.00000000,0.00000000,250.00000000
0.01308857,40.64515049,-146.58071934,0.00000000,250.00000000,0.00000000
0.03951292,-104.64448888,9.86827195,0.00000000,250.00000000,0.00000000
0.07758091,274.93248945,-91.75728635,0.00000000,0.00000000,250.00000000
-0.01242064,199.05991758,118.30554959,0.00000000,0.00000000,250.00000000
0.03042425,55.90635735,-57.33637768,0.00000000,250.00000000,0.00000000
-0.06553683,-184.01367784,99.44260407,250.00000000,0.00000000,0.00000000
-0.02910681,-50.67761668,-236.71654004,0.00000000,250.00000000,0.00000000
-0.05717961,-178.96062439,-38.43917734,250.00000000,0.00000000,0.00000000
-0.01695149,-280.16401177,-95.89276891,250.00000000,0.00000000,0.00000000
-0.10929440,-379.09262068,93.57044713,250.00000000,0.00000000,0.00000000
0.06600691,-172.37884189,-8.87531359,250.00000000,0.00000000,0.00000000
-0.08887526,114.43506450,13.34141812,0.00000000,250.00000000,0.00000000
-0.01272451,-37.70007326,97.48874035,0.00000000,250.00000000,0.00000000
-0.00259338,-3.45112658,-20.59696457,0.00000000,250.00000000,0.00000000
0.05984545,-60.38552037,-127.76660655,0.00000000,250.00000000,0.00000000
0.01158386,103.03042050,-56.30063393,0.00000000,250.00000000,0.00000000
0.02459617,-107.99256355,112.48237782,0.00000000,250.00000000,0.00000000
-0.08422634,-33.68181787,214.56808063,0.00000000,250.00000000,0.00000000
0.00053524,-301.51939785,112.07008879,250.00000000,0.00000000,0.00000000
0.07734073,30.80729496,-35.39748076,0.00000000,250.00000000,0.00000000
-0.04028177,-11.88748810,132.06606874,0.00000000,250.00000000,0.00000000
-0.00879649,38.22377519,134.43601148,0.00000000,250.00000000,0.00000000
0.05932193,-253.50227672,12.59109434,250.00000000,0.00000000,0.00000000
-0.10563670,66.43173431,136.06429204,0.00000000,250.00000000,0.00000000
0.02614946,14.44140226,35.94961672,0.00000000,250.00000000,0.00000000
-0.05087315,158.58474575,-82.49389840,0.00000000,0.00000000,250.00000000
0.00463477,-117.21190569,-35.07598662,0.00000000,250.00000000,0.00000000
-0.01109187,307.65923178,-45.79938915,0.00000000,0.00000000,250.00000000
0.03857980,69.76860344,30.68328538,0.00000000,250.00000000,0.00000000
0.00532061,78.21586806,-117.59966509,0.00000000,250.00000000,0.00000000
0.05013196,-53.11614926,39.20067202,0.00000000,250.00000000,0.00000000
-0.05881741,40.19480384,-38.84227088,0.00000000,250.00000000,0.00000000
0.01060738,126.33079578,-97.96585045,0.00000000,0.00000000,250.00000000
0.02390267,-236.65358691,41.37472201,250.00000000,0.00000000,0.00000000
-0.07226177,9.85806830,-238.89176487,0.00000000,250.00000000,0.00000000
0.00554498,62.05063662,-45.00760799,0.00000000,250.00000000,0.00000000
-0.05028940,-14.54793866,59.84745249,0.00000000,250.00000000,0.00000000
-0.01005311,-9.28837326,-109.35392162,0.00000000,250.00000000,0.00000000
0.01773425,49.59494476,86.44617832,0.00000000,250.00000000,0.00000000
0.00664648,104.38217584,-12.43296500,0.00000000,250.00000000,0.00000000
-0.01304864,263.80563072,77.18073937,0.00000000,0.00000000,250.00000000
0.05631480,-37.28257803,-72.61985730,0.00000000,250.00000000,0.00000000
-0.00816596,76.86835103,57.88785324,0.00000000,250.00000000,0.00000000
0.03239119,-53.65285112,23.58983020,0.00000000,250.00000000,0.00000000
-0.05567193,-63.72602622,-50.82827661,0.00000000,250.00000000,0.00000000
0.01469558,401.52292150,-115.18002589,0.00000000,0.00000000,250.00000000
-0.03373995,-32.92160934,15.86928684,0.00000000,250.00000000,0.00000000
-0.06505117,-261.64556790,67.65595898,250.00000000,0.00000000,0.00000000
-0.04977963,133.89003524,42.09969922,0.00000000,0.00000000,250.00000000
-0.03619200,96.53095735,-109.53066685,0.00000000,250.00000000,0.00000000
-0.05764221,169.97977471,-83.84439768,0.00000000,0.00000000,250.00000000
0.02850252,-319.95417757,-7.47190945,250.00000000,0.00000000,0.00000000
0.09792668,-57.44810653,-7.62467904,0.00000000,250.00000000,0.00000000
-0.00467492,-122.58596263,64.53325405,250.00000000,0.00000000,0.00000000
-0.04691733,31.61591185,47.00666928,0.00000000,250.00000000,0.00000000
-0.01423244,-172.03127912,88.55090671,250.00000000,0.00000000,0.00000000
0.02279771,93.36001018,43.86679129,0.00000000,250.00000000,0.00000000
0.04837090,-71.08284012,-81.74777082,0.00000000,250.00000000,0.00000000
0.00341794,50.05607424,-129.41144102,0.00000000,250.00000000,0.00000000
0.02887865,-153.72903072,-47.06131258,250.00000000,0.00000000,0.00000000
0.05473250,-82.81812098,-165.31384691,0.00000000,250.00000000,0.00000000
-0.02320192,-20.38123182,126.99777303,0.00000000,250.00000000,0.00000000
0.01017054,157.90856402,72.70788209,0.00000000,0.00000000,250.00000000
-0.02516948,467.36258299,-108.08888846,0.00000000,0.00000000,250.00000000
-0.01820163,145.02850740,-81.73872099,0.00000000,0.00000000,250.00000000
0.04649099,262.55970478,-102.12764308,0.00000000,0.00000000,250.00000000
-0.00323795,-77.75826904,-106.00611930,0.00000000,250.00000000,0.00000000
0.03519504,162.08829606,14.25974459,0.00000000,0.00000000,250.00000000
0.01621866,-391.63082737,31.54633603,250.00000000,0.00000000,0.00000000
0.07823078,162.78931536,-74.40044552,0.00000000,0.00000000,250.00000000
0.01479251,-96.02140824,-38.44536757,0.00000000,250.00000000,0.00000000
-0.05683527,85.93058776,170.65610350,0.00000000,250.00000000,0.00000000
0.06754431,-133.11227539,112.18740766,250.00000000,0.00000000,0.00000000
0.02176727,-235.44786227,-28.72444945,250.00000000,0.00000000,0.00000000
0.00812370,-22.87370301,-44.51724844,0.00000000,250.00000000,0.00000000
-0.04259766,-0.39662943,11.37036073,0.00000000,250.00000000,0.00000000
0.03331445,125.92502278,-61.75297753,0.00000000,0.00000000,250.00000000
-0.05560297,-99.73168686,-281.04391611,0.00000000,250.00000000,0.00000000
-0.00545159,93.78186465,59.18105287,0.00000000,250.00000000,0.00000000
-0.09113123,110.43156554,-56.45869213,0.00000000,250.00000000,0.00000000
0.03713202,205.43249679,31.40242413,0.00000000,0.00000000,250.00000000
-0.03746284,43.63306211,-89.10742059,0.00000000,250.00000000,0.00000000
-0.02548212,258.82086968,-35.91317624,0.00000000,0.00000000,250.00000000
-0.05053268,-51.19231693,-4.78219189,0.00000000,250.00000000,0.00000000
0.02421526,219.89803590,58.31500230,0.00000000,0.00000000,250.00000000
-0.02926998,-228.41763039,-199.01017374,250.00000000,0.00000000,0.00000000
0.10912260,-207.90459700,145.19784587,250.00000000,0.00000000,0.00000000
0.04069145,319.65362981,250.47820444,0.00000000,0.00000000,250.00000000
-0.06178888,99.39287824,25.30537245,0.00000000,250.00000000,0.00000000
-0.04468115,-103.76851326,-43.97645585,0.00000000,250.00000000,0.00000000
0.01776419,103.85449278,-43.33256163,0.00000000,250.00000000,0.00000000
0.09602249,1.32725006,274.09402292,0.00000000,250.00000000,0.00000000
-0.11323952,-78.74074160,15.35339175,0.00000000,250.00000000,0.00000000
0.01211076,-225.94044737,-15.52400276,250.00000000,0.00000000,0.00000000
0.02402480,63.69982470,206.39070356,0.00000000,250.00000000,0.00000000
-0.01533347,-275.74673651,-270.88354253,250.00000000,0.00000000,0.00000000
-0.09055938,132.66826166,-20.49732806,0.00000000,0.00000000,250.00000000
-0.07253025,47.60637010,-19.89914325,0.00000000,250.00000000,0.00000000
0.07101244,-14.94451272,79.89921793,0.00000000,250.00000000,0.00000000
0.04043471,153.81955724,122.04494322,0.00000000,0.00000000,250.00000000
0.02516774,-2.58926057,9.97422286,0.00000000,250.00000000,0.00000000
-0.04806444,4.29997348,-35.45194836,0.00000000,250.00000000,0.00000000
-0.03258964,239.04362696,19.03044477,0.00000000,0.00000000,250.00000000
0.03191260,-126.20968759,123.86545991,250.00000000,0.00000000,0.00000000
-0.07846328,239.36410087,-24.72225883,0.00000000,0.00000000,250.00000000
-0.02224803,18.65836184,-82.62135017,0.00000000,250.00000000,0.00000000
-0.03402338,54.81402447,49.83510593,0.00000000,250.00000000,0.00000000
0.04340655,-163.71477334,-146.37200369,250.00000000,0.00000000,0.00000000
-0.01089165,-30.48032295,102.19477304,0.00000000,250.00000000,0.00000000
-0.05405875,-244.50147567,10.53603368,250.00000000,0.00000000,0.00000000
0.08822981,-236.90102410,99.96644329,250.00000000,0.00000000,0.00000000
-0.02772225,-217.49619994,-29.30846284,250.00000000,0.00000000,0.00000000
0.01524189,-4.00323165,4.38885050,0.00000000,250.00000000,0.00000000
-0.00153361,65.14058225,-152.78030714,0.00000000,250.00000000,0.00000000
0.06003229,268.03739270,46.02962498,0.00000000,0.00000000,250.00000000
0.07978253,92.71474471,64.42375166,0.00000000,250.00000000,0.00000000
0.01487417,-52.98492311,-0.04248472,0.00000000,250.00000000,0.00000000
-0.01321474,116.95469105,-111.13556810,0.00000000,250.00000000,0.00000000
-0.00607692,-55.49042710,50.65351793,0.00000000,250.00000000,0.00000000
-0.04277940,-98.48025097,-174.53308986,0.00000000,250.00000000,0.00000000
0.08753444,127.02700484,165.75568567,0.00000000,0.00000000,250.00000000
-0.03916524,-41.30290775,187.41840129,0.00000000,250.00000000,0.00000000
-0.08829106,32.26255788,62.44861405,0.00000000,250.00000000,0.00000000
-0.04290076,-153.46369841,211.82395664,250.00000000,0.00000000,0.00000000
-0.02820950,482.38734790,-16.75754375,0.00000000,0.00000000,250.00000000
-0.01566028,232.06870931,86.48444820,0.00000000,0.00000000,250.00000000
-0.03149741,315.65778643,4.56961097,0.00000000,0.00000000,250.00000000
0.01332302,-256.04122460,-84.90929927,250.00000000,0.00000000,0.00000000
0.00576291,332.11112350,47.40588404,0.00000000,0.00000000,250.00000000
0.03166823,-109.55526701,-142.83293576,0.00000000,250.00000000,0.00000000
-0.02818834,-102.83075131,-88.31165008,0.00000000,250.00000000,0.00000000
-0.00850986,172.30719533,-79.70258514,0.00000000,0.00000000,250.00000000
0.08282091,65.87933340,65.70074892,0.00000000,250.00000000,0.00000000
-0.01451914,-230.55745802,104.81979727,250.00000000,0.00000000,0.00000000
0.03300792,-378.42891896,75.58442729,250.00000000,0.00000000,0.00000000
0.05885839,-81.39555600,-99.60168187,0.00000000,250.00000000,0.00000000
-0.00456372,-9.69175521,34.53397934,0.00000000,250.00000000,0.00000000
0.01395984,-197.38597349,-3.43855318,250.00000000,0.00000000,0.00000000
-0.06497506,-103.16203253,60.03709030,0.00000000,250.00000000,0.00000000
-0.00792754,109.00328511,-13.16139010,0.00000000,250.00000000,0.00000000
-0.00587527,142.20871408,-48.68763339,0.00000000,0.00000000,250.00000000
-0.02819959,-58.68105883,182.71916532,0.00000000,250.00000000,0.00000000
0.00872878,-142.54525372,137.78878895,250.00000000,0.00000000,0.00000000
0.06264093,-317.86895407,19.15820294,250.00000000,0.00000000,0.00000000
-0.03693812,26.78522171,130.35238952,0.00000000,250.00000000,0.00000000
0.03284837,196.06015171,2.54646007,0.00000000,0.00000000,250.00000000
-0.01874664,-30.21011420,-41.07554950,0.00000000,250.00000000,0.00000000
0.02851400,7.68840909,5.24069081,0.00000000,250.00000000,0.00000000
-0.00665037,-201.91315957,-108.34688834,250.00000000,0.00000000,0.00000000
-0.02283203,-70.28381409,-171.77476261,0.00000000,250.00000000,0.00000000
0.05608365,-218.27170793,-125.38422380,250.00000000,0.00000000,0.00000000
-0.02975497,-270.29028777,-20.38384608,250.00000000,0.00000000,0.00000000
-0.06910324,-16.57664711,29.98587641,0.00000000,250.00000000,0.00000000
-0.06343839,-14.72551193,31.20207662,0.00000000,250.00000000,0.00000000
0.01804811,57.81418697,51.35940462,0.00000000,250.00000000,0.00000000
0.07851277,120.18029344,40.10454875,0.00000000,250.00000000,0.00000000
-0.04284600,232.46980163,5.83707791,0.00000000,0.00000000,250.00000000
-0.02311810,-263.47241714,47.70384533,250.00000000,0.00000000,0.00000000
0.01383362,10.43500568,6.49232721,0.00000000,250.00000000,0.00000000
0.05691991,458.38595424,-47.44219491,0.00000000,0.00000000,250.00000000
-0.03198453,-74.23584969,-37.41765265,0.00000000,250.00000000,0.00000000
-0.07316298,-135.33017643,126.95513506,250.00000000,0.00000000,0.00000000
-0.08367474,-134.61769360,19.56414965,250.00000000,0.00000000,0.00000000
-0.09143635,-115.43976646,80.54288719,0.00000000,250.00000000,0.00000000
-0.01182363,217.91655751,-194.98458361,0.00000000,0.00000000,250.00000000
-0.05675167,-198.00187401,152.18934573,250.00000000,0.00000000,0.00000000
0.09534882,15.12926776,34.97808461,0.00000000,250.00000000,0.00000000
0.05419745,-46.81245511,-220.14415367,0.00000000,250.00000000,0.00000000
-0.05954272,-147.36089585,155.66880728,250.00000000,0.00000000,0.00000000
-0.00085017,-89.69663028,-9.43687958,0.00000000,250.00000000,0.00000000
-0.02533158,184.61243289,119.11187316,0.00000000,0.00000000,250.00000000
-0.05785092,-121.74078655,-59.82939860,0.00000000,250.00000000,0.00000000
0.00231577,75.25401215,76.86957372,0.00000000,250.00000000,0.00000000
0.06356175,58.56966531,162.66739004,0.00000000,250.00000000,0.00000000
-0.02073754,153.98073819,-227.91328843,0.00000000,0.00000000,250.00000000
0.10281534,-70.53150426,62.34940471,0.00000000,250.00000000,0.00000000
0.02229906,-11.44124058,-19.87107001,0.00000000,250.00000000,0.00000000
-0.07900252,-108.78912824,-218.35857954,0.00000000,250.00000000,0.00000000
-0.00441414,272.50431298,132.04420625,0.00000000,0.00000000,250.00000000
-0.01391846,-125.24399363,142.33413578,250.00000000,0.00000000,0.00000000
0.01413281,-165.01189619,8.81821609,250.00000000,0.00000000,0.00000000
-0.02997586,92.42378488,52.60866675,0.00000000,250.00000000,0.00000000
-0.01700596,24.70254401,-128.52886059,0.00000000,250.00000000,0.00000000
-0.02318775,-24.76066750,-77.70493759,0.00000000,250.00000000,0.00000000
0.06257934,97.37469201,-145.12781852,0.00000000,250.00000000,0.00000000
-0.07420507,147.88445168,37.83193460,0.00000000,0.00000000,250.00000000
0.05013543,24.61969539,-201.61342660,0.00000000,250.00000000,0.00000000
0.07866963,-306.18911328,-3.22354122,250.00000000,0.00000000,0.00000000
-0.03043772,181.70941876,87.36266542,0.00000000,0.00000000,250.00000000
-0.08677930,260.54987634,-157.60121309,0.00000000,0.00000000,250.00000000
0.06207328,-41.65668025,55.49890144,0.00000000,250.00000000,0.00000000
-0.02562217,-681.47498993,51.19730831,250.00000000,0.00000000,0.00000000
0.00534308,-206.18248784,55.65304567,250.00000000,0.00000000,0.00000000
-0.01072434,-331.40690462,151.07446057,250.00000000,0.00000000,0.00000000
0.06013958,212.85936616,-30.86041291,0.00000000,0.00000000,250.00000000
-0.09609135,-340.56471738,159.56721088,250.00000000,0.00000000,0.00000000
-0.09759712,101.49126405,-80.98427970,0.00000000,250.00000000,0.00000000
0.08693502,-158.25543730,27.57921207,250.00000000,0.00000000,0.00000000
-0.08171842,432.11941392,184.96639733,0.00000000,0.00000000,250.00000000
-0.02652520,243.05958857,20.48293335,0.00000000,0.00000000,250.00000000
-0.01424020,-66.19635685,9.76320519,0.00000000,250.00000000,0.00000000
-0.06851431,165.54297220,20.86822579,0.00000000,0.00000000,250.00000000
-0.02543967,88.16905038,-93.45960308,0.00000000,250.00000000,0.00000000
0.02367155,-278.25760205,91.00829100,250.00000000,0.00000000,0.00000000
0.02190068,451.43960677,6.17322501,0.00000000,0.00000000,250.00000000
-0.02815983,-486.43843148,-39.42181429,250.00000000,0.00000000,0.00000000
0.03629623,48.05522242,-158.14192714,0.00000000,250.00000000,0.00000000
0.05831316,368.02725016,76.97265650,0.00000000,0.00000000,250.00000000
0.02136877,214.08912248,-57.04001940,0.00000000,0.00000000,250.00000000
0.04869552,-152.85700892,-99.59674073,250.00000000,0.00000000,0.00000000
0.02602533,-396.75131518,-121.72326792,250.00000000,0.00000000,0.00000000
0.03553309,182.53783077,-85.98830055,0.00000000,0.00000000,250.00000000
0.00774782,-70.62290377,53.29928056,0.00000000,250.00000000,0.00000000
0.05781485,-29.07074263,146.30507303,0.00000000,250.00000000,0.00000000
-0.00377779,-197.75826551,43.63702370,250.00000000,0.00000000,0.00000000
0.01629873,150.94737368,-12.03215398,0.00000000,0.00000000,250.00000000
-0.03466495,113.07381705,-80.40881097,0.00000000,250.00000000,0.00000000
-0.02848022,-277.99547305,80.80050637,250.00000000,0.00000000,0.00000000
-0.04895175,60.23042001,21.39874056,0.00000000,250.00000000,0.00000000
-0.00426781,-5.54254910,-48.82990863,0.00000000,250.00000000,0.00000000
0.09540036,-160.90424931,-3.62586455,250.00000000,0.00000000,0.00000000
0.02874256,-154.10684258,148.47984689,250.00000000,0.00000000,0.00000000
0.04904676,48.36259297,97.80989630,0.00000000,250.00000000,0.00000000
0.07150472,104.27823749,-25.97393878,0.00000000,250.00000000,0.00000000
-0.00057422,58.56624835,-166.67708507,0.00000000,250.00000000,0.00000000
-0.02048487,-212.82928275,84.86007823,250.00000000,0.00000000,0.00000000
0.09992446,120.77769514,-156.19289192,0.00000000,250.00000000,0.00000000
0.00087943,114.69312343,30.06770788,0.00000000,250.00000000,0.00000000
-0.03129520,82.45127372,-259.33847735,0.00000000,250.00000000,0.00000000
-0.02698053,-48.16743729,-57.01110253,0.00000000,250.00000000,0.00000000
-0.06540748,214.20212217,14.32469937,0.00000000,0.00000000,250.00000000
0.01504398,-144.23907503,-87.22261833,250.00000000,0.00000000,0.00000000
0.01266425,93.15535770,-104.46089518,0.00000000,250.00000000,0.00000000
-0.00219230,112.74698349,-23.32676503,0.00000000,250.00000000,0.00000000
0.02204229,257.10141084,-118.98020530,0.00000000,0.00000000,250.00000000
0.07401286,-297.55487910,-81.45367901,250.00000000,0.00000000,0.00000000
-0.04139782,2.05550421,161.26463049,0.00000000,250.00000000,0.00000000
-0.09073962,14.05128059,-229.78870889,0.00000000,250.00000000,0.00000000
0.03723627,-136.27781035,-28.27668199,250.00000000,0.00000000,0.00000000
0.04880741,-57.18207216,82.61185437,0.00000000,250.00000000,0.00000000
0.04665367,-56.76902333,-82.20010202,0.00000000,250.00000000,0.00000000
-0.03519929,504.92872614,87.65528219,0.00000000,0.00000000,250.00000000
0.00959331,-260.39038145,-28.81850023,250.00000000,0.00000000,0.00000000
-0.05190242,99.96524653,115.84893357,0.00000000,250.00000000,0.00000000
0.00080540,87.64758135,52.29158605,0.00000000,250.00000000,0.00000000
0.03236054,-300.36876620,-53.36864958,250.00000000,0.00000000,0.00000000
0.01308856,-40.70620704,98.37562002,0.00000000,250.00000000,0.00000000
0.00921164,284.59424043,-63.13615211,0.00000000,0.00000000,250.00000000
0.02280814,161.07995359,-9.28253161,0.00000000,0.00000000,250.00000000
-0.00365963,-294.92085874,31.49643318,250.00000000,0.00000000,0.00000000
-0.06947068,-286.50760059,-49.67880680,250.00000000,0.00000000,0.00000000
0.03643924,217.71221488,59.59804000,0.00000000,0.00000000,250.00000000
0.05477291,21.28634006,35.61625258,0.00000000,250.00000000,0.00000000
-0.00286387,208.56390540,162.63200756,0.00000000,0.00000000,250.00000000
-0.02031669,-88.55778767,-82.97757641,0.00000000,250.00000000,0.00000000
0.00746925,-112.41958099,-75.24081073,0.00000000,250.00000000,0.00000000
0.02016438,-54.47357443,43.93195274,0.00000000,250.00000000,0.00000000
-0.09115707,1.80774213,166.70701039,0.00000000,250.00000000,0.00000000
-0.02361367,-107.21465188,8.99390645,0.00000000,250.00000000,0.00000000
0.02565271,-246.48636444,-40.04056150,250.00000000,0.00000000,0.00000000
-0.00501628,488.43202672,-31.57622490,0.00000000,0.00000000,250.00000000
-0.05874315,286.10184573,89.47374161,0.00000000,0.00000000,250.00000000
0.04956827,-113.88290018,-103.94532802,0.00000000,250.00000000,0.00000000
0.01092194,44.81637690,-138.67218483,0.00000000,250.00000000,0.00000000
0.03372031,477.17066131,-41.34286253,0.00000000,0.00000000,250.00000000
-0.02580239,32.68206689,-73.90866975,0.00000000,250.00000000,0.00000000
0.07702560,-18.05650624,119.99602361,0.00000000,250.00000000,0.00000000
-0.00407250,-271.85678183,6.73186436,250.00000000,0.00000000,0.00000000
-0.01510614,-17.36230784,98.41813341,0.00000000,250.00000000,0.00000000
0.05988572,-111.45205037,18.82497488,0.00000000,250.00000000,0.00000000
-0.01765756,-277.72473448,129.23672854,250.00000000,0.00000000,0.00000000
0.05764316,-122.46255014,-53.10838959,0.00000000,250.00000000,0.00000000
-0.06162624,13.20552795,78.61424048,0.00000000,250.00000000,0.00000000
0.02298171,-186.85362534,-151.77437587,250.00000000,0.00000000,0.00000000
-0.00013902,189.19986187,-49.59367167,0.00000000,0.00000000,250.00000000
-0.02418400,-207.31437759,-136.33809076,250.00000000,0.00000000,0.00000000
-0.03048302,-238.79722088,40.09926626,250.00000000,0.00000000,0.00000000
0.02046013,119.79459177,25.55203341,0.00000000,250.00000000,0.00000000
