196.43977937,537.93839780,0.21281805,0.00000000,0.00000000,250.00000000
154.59324317,12.90758094,0.17159604,250.00000000,0.00000000,0.00000000
-27.40557297,-154.64217428,0.22376598,0.00000000,250.00000000,0.00000000
-65.54939770,241.18369197,0.14052929,0.00000000,0.00000000,250.00000000
69.45075860,-62.43851147,0.23806326,250.00000000,0.00000000,0.00000000
4.84348057,88.77772725,0.18705056,250.00000000,0.00000000,0.00000000
-60.83705807,-194.39723606,0.24496491,0.00000000,250.00000000,0.00000000
-210.79035301,-207.75359467,0.18827771,0.00000000,250.00000000,0.00000000
4.06796832,-104.80864417,0.09301128,250.00000000,0.00000000,0.00000000
-157.18987461,131.97659972,0.29712225,0.00000000,0.00000000,250.00000000
-29.69281988,-31.96904544,0.17735499,250.00000000,0.00000000,0.00000000
64.22040859,-303.17396701,0.19195454,0.00000000,250.00000000,0.00000000
116.82079105,-100.21652864,0.16364785,250.00000000,0.00000000,0.00000000
-111.87592425,247.42833287,0.24655118,0.00000000,0.00000000,250.00000000
-100.38798001,53.98479437,0.12041735,250.00000000,0.00000000,0.00000000
230.36839224,-182.97775072,0.25196121,0.00000000,250.00000000,0.00000000
40.53206571,164.06096879,0.17769454,0.00000000,0.00000000,250.00000000
-94.82711799,197.78468610,0.24932854,0.00000000,0.00000000,250.00000000
-75.44957180,70.68481517,0.19734282,250.00000000,0.00000000,0.00000000
-88.14317328,159.98302162,0.14729512,0.00000000,0.00000000,250.00000000
75.76406005,50.28930143,0.24172786,250.00000000,0.00000000,0.00000000
-76.21413069,-112.08212788,0.21922520,250.00000000,0.00000000,0.00000000
70.58535871,256.41099827,0.24460227,0.00000000,0.00000000,250.00000000
162.27449675,141.52629127,0.17840083,0.00000000,0.00000000,250.00000000
106.07361466,-304.71021185,0.21715044,0.00000000,250.00000000,0.00000000
-33.27776961,164.43071057,0.24224541,0.00000000,0.00000000,250.00000000
62.24792159,-77.04107204,0.19805560,250.00000000,0.00000000,0.00000000
-25.88648932,-115.98687147,0.21952936,250.00000000,0.00000000,0.00000000
-155.29407002,148.52277415,0.25206627,0.00000000,0.00000000,250.00000000
-17.46405912,268.86245027,0.30364432,0.00000000,0.00000000,250.00000000
4.54402354,62.32372948,0.19645881,250.00000000,0.00000000,0.00000000
-43.68183237,-624.61219440,0.17284919,0.00000000,250.00000000,0.00000000
58.12345664,255.84633910,0.14492799,0.00000000,0.00000000,250.00000000
-134.84326111,223.62023108,0.18742352,0.00000000,0.00000000,250.00000000
17.53982182,-298.31864671,0.32987329,0.00000000,250.00000000,0.00000000
51.30952786,103.81066947,0.19539834,250.00000000,0.00000000,0.00000000
-65.09112131,123.70038399,0.16339150,0.00000000,0.00000000,250.00000000
8.78387828,-279.40879656,0.21055964,0.00000000,250.00000000,0.00000000
137.01178853,-406.08610521,0.17248025,0.00000000,250.00000000,0.00000000
-57.70755643,-19.44638917,0.21954457,250.00000000,0.00000000,0.00000000
-117.94875026,8.88273809,0.14464853,250.00000000,0.00000000,0.00000000
5.05493556,32.63619904,0.22007474,250.00000000,0.00000000,0.00000000
96.22549478,48.91088928,0.18718913,250.00000000,0.00000000,0.00000000
-66.17541294,288.40294930,0.18955467,0.00000000,0.00000000,250.00000000
-67.40616585,84.71511130,0.23941736,250.00000000,0.00000000,0.00000000
38.84108338,-11.59606595,0.19726354,250.00000000,0.00000000,0.00000000
98.00580562,307.81783946,0.17591473,0.00000000,0.00000000,250.00000000
-135.03852975,-47.58551736,0.25374260,250.00000000,0.00000000,0.00000000
181.12032832,88.63592151,0.17838028,250.00000000,0.00000000,0.00000000
-22.20451987,-157.97354130,0.19926715,0.00000000,250.00000000,0.00000000
-66.97712503,294.70928015,0.15634081,0.00000000,0.00000000,250.00000000
-24.95814608,-111.08407650,0.20952206,250.00000000,0.00000000,0.00000000
-28.28191088,60.92878877,0.15550161,250.00000000,0.00000000,0.00000000
-119.73721578,93.64310470,0.19613751,250.00000000,0.00000000,0.00000000
76.74367696,-351.86934789,0.21486216,0.00000000,250.00000000,0.00000000
-54.53220738,278.65954187,0.16582570,0.00000000,0.00000000,250.00000000
-88.38944842,-22.81674366,0.17383411,250.00000000,0.00000000,0.00000000
54.12548746,248.78479725,0.13522275,0.00000000,0.00000000,250.00000000
154.42053427,64.67825381,0.23832888,250.00000000,0.00000000,0.00000000
64.24663922,-243.18045881,0.18215686,0.00000000,250.00000000,0.00000000
-13.00448931,2.78747405,0.21131274,250.00000000,0.00000000,0.00000000
107.18821531,-4.15194964,0.21772215,250.00000000,0.00000000,0.00000000
144.73906886,-106.86500652,0.21899377,250.00000000,0.00000000,0.00000000
-27.48102670,7.66395134,0.11505355,250.00000000,0.00000000,0.00000000
24.29741546,230.22033052,0.13193516,0.00000000,0.00000000,250.00000000
0.27742062,-469.07905849,0.21555825,0.00000000,250.00000000,0.00000000
115.18159875,-256.34243293,0.21984215,0.00000000,250.00000000,0.00000000
38.22454100,-239.95913561,0.16235566,0.00000000,250.00000000,0.00000000
60.55976902,-223.84625064,0.20947924,0.00000000,250.00000000,0.00000000
4.03397049,118.34620897,0.23149044,0.00000000,0.00000000,250.00000000
95.12842165,164.64882642,0.27294234,0.00000000,0.00000000,250.00000000
121.21972068,193.11465745,0.17977737,0.00000000,0.00000000,250.00000000
7.60384636,-157.28809797,0.22527534,0.00000000,250.00000000,0.00000000
46.62398376,294.38785617,0.20747339,0.00000000,0.00000000,250.00000000
-34.61591472,46.80618339,0.20285388,250.00000000,0.00000000,0.00000000
149.28001732,344.33327678,0.20218718,0.00000000,0.00000000,250.00000000
117.00003063,101.29600491,0.21337705,250.00000000,0.00000000,0.00000000
-6.26813949,108.89204976,0.26633627,250.00000000,0.00000000,0.00000000
-205.94033369,208.44943189,0.25171157,0.00000000,0.00000000,250.00000000
-32.60623846,310.91061449,0.24734257,0.00000000,0.00000000,250.00000000
-129.50406217,168.62149447,0.20784312,0.00000000,0.00000000,250.00000000
1.75441164,76.16365745,0.03831884,250.00000000,0.00000000,0.00000000
-82.45281928,126.53076004,0.18661390,0.00000000,0.00000000,250.00000000
106.46040556,13.64939037,0.22852562,250.00000000,0.00000000,0.00000000
167.51198175,320.68927507,0.19183143,0.00000000,0.00000000,250.00000000
152.17362507,301.88546109,0.26403883,0.00000000,0.00000000,250.00000000
69.23199679,24.58927429,0.20608295,250.00000000,0.00000000,0.00000000
81.11201070,202.87725575,0.17028202,0.00000000,0.00000000,250.00000000
-12.67747785,-77.52259796,0.13725175,250.00000000,0.00000000,0.00000000
-10.05535987,-48.01467451,0.14662121,250.00000000,0.00000000,0.00000000
-195.86641645,8.72434557,0.19546577,250.00000000,0.00000000,0.00000000
-54.41593472,-68.15672224,0.24944524,250.00000000,0.00000000,0.00000000
-111.20363527,-137.46643389,0.22704331,0.00000000,250.00000000,0.00000000
90.94876144,-88.44668576,0.15354406,250.00000000,0.00000000,0.00000000
24.62809918,-102.63487293,0.13992566,250.00000000,0.00000000,0.00000000
157.60444005,-176.27473178,0.17811377,0.00000000,250.00000000,0.00000000
69.93044731,-95.95363878,0.19382359,250.00000000,0.00000000,0.00000000
-7.44098092,339.56168370,0.13912164,0.00000000,0.00000000,250.00000000
-92.23917161,179.16979853,0.25172343,0.00000000,0.00000000,250.00000000
-81.00577200,-384.11067486,0.24933894,0.00000000,250.00000000,0.00000000
188.58708145,94.35600122,0.19407536,250.00000000,0.00000000,0.00000000
-57.36434402,177.28643496,0.20120701,0.00000000,0.00000000,250.00000000
-35.58344104,99.84328276,0.15393252,250.00000000,0.00000000,0.00000000
78.68940028,49.65855673,0.16573744,250.00000000,0.00000000,0.00000000
119.93171342,-281.77270496,0.25005300,0.00000000,250.00000000,0.00000000
92.85008389,164.16594640,0.21654892,0.00000000,0.00000000,250.00000000
-169.85670876,189.17735746,0.19423683,0.00000000,0.00000000,250.00000000
151.23112143,22.19093415,0.24093796,250.00000000,0.00000000,0.00000000
-27.49409126,-235.31727815,0.25818248,0.00000000,250.00000000,0.00000000
12.50966586,46.84888588,0.17853985,250.00000000,0.00000000,0.00000000
21.32301971,-95.16628628,0.21295786,250.00000000,0.00000000,0.00000000
55.64431328,-28.98366675,0.18878382,250.00000000,0.00000000,0.00000000
163.52631993,365.90337473,0.25097877,0.00000000,0.00000000,250.00000000
-68.38182169,-46.12961729,0.19365002,250.00000000,0.00000000,0.00000000
-59.23481198,130.45766063,0.34233745,0.00000000,0.00000000,250.00000000
-130.41012997,33.11587826,0.22565714,250.00000000,0.00000000,0.00000000
-184.69258340,143.31331587,0.19303406,0.00000000,0.00000000,250.00000000
-68.68428375,38.89729708,0.23721595,250.00000000,0.00000000,0.00000000
124.94343891,-152.76585767,0.11183645,0.00000000,250.00000000,0.00000000
69.02942878,-194.72651277,0.16952914,0.00000000,250.00000000,0.00000000
99.75219083,-230.04454261,0.31592535,0.00000000,250.00000000,0.00000000
279.15824114,-37.19944736,0.23702589,250.00000000,0.00000000,0.00000000
78.88484106,-160.19505752,0.16113281,0.00000000,250.00000000,0.00000000
133.42995574,-261.95920224,0.28062710,0.00000000,250.00000000,0.00000000
54.96332000,273.43194731,0.12022387,0.00000000,0.00000000,250.00000000
-237.92831453,127.96310008,0.16232182,0.00000000,0.00000000,250.00000000
-93.28430719,-109.42731140,0.27872598,250.00000000,0.00000000,0.00000000
146.98226414,-186.10052221,0.18548873,0.00000000,250.00000000,0.00000000
-27.39630321,132.66964306,0.23934998,0.00000000,0.00000000,250.00000000
-136.14531779,43.16378491,0.19418937,250.00000000,0.00000000,0.00000000
-78.05859179,8.30617455,0.28893194,250.00000000,0.00000000,0.00000000
-42.86381553,-300.31188366,0.12768476,0.00000000,250.00000000,0.00000000
174.67351072,198.78168239,0.16288021,0.00000000,0.00000000,250.00000000
127.44094622,-19.14943968,0.15036459,250.00000000,0.00000000,0.00000000
-45.00233469,-186.81188921,0.16015370,0.00000000,250.00000000,0.00000000
70.59935192,116.55003918,0.22935637,250.00000000,0.00000000,0.00000000
61.25546727,-53.82230851,0.09869565,250.00000000,0.00000000,0.00000000
105.08824925,66.67812305,0.20117652,250.00000000,0.00000000,0.00000000
-58.29952633,0.46946004,0.16655951,250.00000000,0.00000000,0.00000000
-30.02135618,-98.22958934,0.24140823,250.00000000,0.00000000,0.00000000
-129.58610451,335.04843991,0.23928313,0.00000000,0.00000000,250.00000000
187.13737466,-58.58378240,0.13419280,250.00000000,0.00000000,0.00000000
-83.27103039,512.00475785,0.14950445,0.00000000,0.00000000,250.00000000
-80.30950420,84.72001583,0.31348786,250.00000000,0.00000000,0.00000000
137.66771630,-369.02231318,0.21929333,0.00000000,250.00000000,0.00000000
-45.60759481,-46.32509201,0.14951324,250.00000000,0.00000000,0.00000000
-43.92583507,-204.83356867,0.19017774,0.00000000,250.00000000,0.00000000
29.70612568,-288.42100547,0.21666359,0.00000000,250.00000000,0.00000000
-43.06472639,-71.44124025,0.10523231,250.00000000,0.00000000,0.00000000
-46.47587970,258.54183858,0.22622084,0.00000000,0.00000000,250.00000000
-31.45887622,-221.58015113,0.16251636,0.00000000,250.00000000,0.00000000
41.64093998,128.97027324,0.29761028,0.00000000,0.00000000,250.00000000
-175.33422333,-295.13698182,0.13450115,0.00000000,250.00000000,0.00000000
-141.21487024,-84.10132723,0.22419601,250.00000000,0.00000000,0.00000000
56.45864292,53.04060989,0.20567097,250.00000000,0.00000000,0.00000000
-72.67153511,184.63628975,0.18221285,0.00000000,0.00000000,250.00000000
-67.13103029,-213.91492985,0.19711884,0.00000000,250.00000000,0.00000000
54.02462712,78.16460809,0.23752931,250.00000000,0.00000000,0.00000000
-150.93543174,323.48945775,0.25624507,0.00000000,0.00000000,250.00000000
162.47232005,291.76903818,0.15355692,0.00000000,0.00000000,250.00000000
-42.37145187,252.94444851,0.18188841,0.00000000,0.00000000,250.00000000
-133.79627761,78.15758543,0.22150078,250.00000000,0.00000000,0.00000000
139.12467139,-136.23891367,0.16951151,0.00000000,250.00000000,0.00000000
69.87449017,-10.43803194,0.22975543,250.00000000,0.00000000,0.00000000
-27.79002029,1.38356130,0.19170327,250.00000000,0.00000000,0.00000000
-17.25102652,209.69580389,0.22370806,0.00000000,0.00000000,250.00000000
-89.29003131,-21.80664589,0.22836881,250.00000000,0.00000000,0.00000000
160.23446193,424.76994562,0.23538734,0.00000000,0.00000000,250.00000000
-70.25693726,152.49411760,0.19807193,0.00000000,0.00000000,250.00000000
26.79682627,-38.48015465,0.15132126,250.00000000,0.00000000,0.00000000
149.58938608,-233.41340581,0.18629559,0.00000000,250.00000000,0.00000000
34.53157794,-150.36345761,0.17024657,0.00000000,250.00000000,0.00000000
12.99335629,38.83894695,0.14244959,250.00000000,0.00000000,0.00000000
15.56698318,240.20214332,0.22664100,0.00000000,0.00000000,250.00000000
-29.51251617,153.77684670,0.19855539,0.00000000,0.00000000,250.00000000
-64.10318316,31.03298190,0.16016329,250.00000000,0.00000000,0.00000000
73.72341023,228.98656869,0.30391124,0.00000000,0.00000000,250.00000000
130.97935535,56.72379765,0.19919295,250.00000000,0.00000000,0.00000000
35.80181914,-119.66931014,0.26787688,250.00000000,0.00000000,0.00000000
50.74091980,-189.83083196,0.18645434,0.00000000,250.00000000,0.00000000
64.99030397,-170.91478572,0.19880037,0.00000000,250.00000000,0.00000000
84.00270718,124.05550405,0.16200002,0.00000000,0.00000000,250.00000000
-122.70244354,102.04740974,0.23683900,250.00000000,0.00000000,0.00000000
30.27914069,143.49364219,0.21389414,0.00000000,0.00000000,250.00000000
-2.93387952,-347.15838693,0.23293226,0.00000000,250.00000000,0.00000000
26.92126496,92.52316412,0.24875070,250.00000000,0.00000000,0.00000000
-47.72238032,-101.22857216,0.22895311,250.00000000,0.00000000,0.00000000
77.34043986,132.52779821,0.13180974,0.00000000,0.00000000,250.00000000
51.75724170,263.26763132,0.23024819,0.00000000,0.00000000,250.00000000
-22.67150364,79.23504338,0.30237239,250.00000000,0.00000000,0.00000000
-6.03604138,-391.91649365,0.17243244,0.00000000,250.00000000,0.00000000
-61.19159767,321.54150574,0.27470022,0.00000000,0.00000000,250.00000000
131.88033594,-293.49439404,0.19286180,0.00000000,250.00000000,0.00000000
12.37949902,-280.72035455,0.14881732,0.00000000,250.00000000,0.00000000
-55.11246046,370.67088868,0.16439959,0.00000000,0.00000000,250.00000000
-22.03602097,-283.81294187,0.20787598,0.00000000,250.00000000,0.00000000
151.56647231,206.99285677,0.29053689,0.00000000,0.00000000,250.00000000
-179.25423361,430.25913961,0.25349836,0.00000000,0.00000000,250.00000000
182.06770414,-21.42399792,0.20224601,250.00000000,0.00000000,0.00000000
-5.20776006,775.23860936,0.28039204,0.00000000,0.00000000,250.00000000
-179.96066727,-112.15787583,0.18332829,250.00000000,0.00000000,0.00000000
83.54526774,-66.59616347,0.23361368,250.00000000,0.00000000,0.00000000
-100.60148069,114.68854716,0.21680306,250.00000000,0.00000000,0.00000000
-103.52445077,-218.50507658,0.21935327,0.00000000,250.00000000,0.00000000
68.59311472,428.66928961,0.28483660,0.00000000,0.00000000,250.00000000
-228.68373355,222.99318198,0.18114094,0.00000000,0.00000000,250.00000000
-93.31420082,316.87032045,0.20548397,0.00000000,0.00000000,250.00000000
-45.18512917,89.18806549,0.18357040,250.00000000,0.00000000,0.00000000
74.61202418,307.96466571,0.26210236,0.00000000,0.00000000,250.00000000
83.84325342,140.92343757,0.22884632,0.00000000,0.00000000,250.00000000
54.98140090,166.27890006,0.13014282,0.00000000,0.00000000,250.00000000
25.30543991,-96.39774561,0.22654419,250.00000000,0.00000000,0.00000000
-21.76310591,81.68965395,0.16801241,250.00000000,0.00000000,0.00000000
-50.86698099,-92.63113264,0.23827215,250.00000000,0.00000000,0.00000000
84.07368866,74.84006528,0.25094432,250.00000000,0.00000000,0.00000000
11.77698200,62.13310877,0.09291719,250.00000000,0.00000000,0.00000000
91.37810623,473.01902785,0.20870263,0.00000000,0.00000000,250.00000000
-41.76149607,23.60168798,0.07817596,250.00000000,0.00000000,0.00000000
1.19079578,-67.69442514,0.20476690,250.00000000,0.00000000,0.00000000
7.28927507,-120.49425145,0.11341740,250.00000000,0.00000000,0.00000000
131.05164395,365.83052415,0.19976403,0.00000000,0.00000000,250.00000000
32.46160769,-333.02403913,0.17602220,0.00000000,250.00000000,0.00000000
-47.02802523,399.64548061,0.21971350,0.00000000,0.00000000,250.00000000
-3.11347150,4.01012826,0.25786911,250.00000000,0.00000000,0.00000000
-23.05004821,-87.95017592,0.18464982,250.00000000,0.00000000,0.00000000
-74.95516916,366.37872512,0.15162831,0.00000000,0.00000000,250.00000000
-118.19727540,127.13788219,0.18758273,0.00000000,0.00000000,250.00000000
-171.42778257,-112.10820640,0.18463834,250.00000000,0.00000000,0.00000000
-132.02183808,101.43038118,0.18221564,250.00000000,0.00000000,0.00000000
38.31413338,0.90520202,0.16191421,250.00000000,0.00000000,0.00000000
-32.35575316,200.16445039,0.25628977,0.00000000,0.00000000,250.00000000
-98.77741903,74.61483265,0.28668951,250.00000000,0.00000000,0.00000000
-20.97347480,-538.29505790,0.18853002,0.00000000,250.00000000,0.00000000
-102.29144265,132.01419859,0.17591846,0.00000000,0.00000000,250.00000000
167.00103127,-29.24080713,0.20336308,250.00000000,0.00000000,0.00000000
-141.26075416,320.50765934,0.18179831,0.00000000,0.00000000,250.00000000
69.62214241,-325.69107720,0.22130017,0.00000000,250.00000000,0.00000000
-0.51213166,-113.55167237,0.18160376,250.00000000,0.00000000,0.00000000
-49.26708994,5.63714376,0.24952313,250.00000000,0.00000000,0.00000000
-79.30826171,-305.99070361,0.18373822,0.00000000,250.00000000,0.00000000
129.33842195,-387.67540948,0.22861694,0.00000000,250.00000000,0.00000000
-7.63593230,2.30159631,0.33186277,250.00000000,0.00000000,0.00000000
-31.41434122,304.12463372,0.11088844,0.00000000,0.00000000,250.00000000
-141.69499342,-126.85986170,0.22242265,0.00000000,250.00000000,0.00000000
12.66908565,460.98241067,0.24415573,0.00000000,0.00000000,250.00000000
158.90012731,41.60798859,0.22029465,250.00000000,0.00000000,0.00000000
-154.69178763,417.57126156,0.24752739,0.00000000,0.00000000,250.00000000
-83.15368025,435.03491009,0.18567539,0.00000000,0.00000000,250.00000000
-46.15202066,-60.64011731,0.16704508,250.00000000,0.00000000,0.00000000
-9.51868230,3.52512660,0.20479141,250.00000000,0.00000000,0.00000000
60.23115793,-64.90691732,0.23951168,250.00000000,0.00000000,0.00000000
105.10224340,-260.71858777,0.14616378,0.00000000,250.00000000,0.00000000
62.97915704,-280.15693094,0.24803302,0.00000000,250.00000000,0.00000000
-81.25116223,-268.60196838,0.18325474,0.00000000,250.00000000,0.00000000
22.35246461,-28.83570804,0.21887479,250.00000000,0.00000000,0.00000000
-60.24875337,-261.32123629,0.26821797,0.00000000,250.00000000,0.00000000
-18.41133046,-119.39574428,0.28221905,250.00000000,0.00000000,0.00000000
-57.94322262,-180.27189620,0.21226775,0.00000000,250.00000000,0.00000000
32.17154667,-13.88592708,0.20618321,250.00000000,0.00000000,0.00000000
199.21084509,-26.77357140,0.31478539,250.00000000,0.00000000,0.00000000
18.90319878,-81.39821965,0.09781712,250.00000000,0.00000000,0.00000000
-40.07739109,99.73658270,0.22770278,250.00000000,0.00000000,0.00000000
-208.13714071,50.49497193,0.16775800,250.00000000,0.00000000,0.00000000
-32.38215853,-501.25390202,0.14645502,0.00000000,250.00000000,0.00000000
-95.39838394,22.33610959,0.18665474,250.00000000,0.00000000,0.00000000
40.69885091,-366.19317508,0.23424109,0.00000000,250.00000000,0.00000000
87.58521843,124.74341221,0.18894768,0.00000000,0.00000000,250.00000000
-120.29501158,-97.99279894,0.18920603,250.00000000,0.00000000,0.00000000
90.46238499,201.80870770,0.24175876,0.00000000,0.00000000,250.00000000
-137.75675563,-113.57878832,0.19299889,250.00000000,0.00000000,0.00000000
-82.01818551,109.52590526,0.18065336,250.00000000,0.00000000,0.00000000
-43.15594329,-467.58943020,0.19075196,0.00000000,250.00000000,0.00000000
142.02699915,-174.90444310,0.32031003,0.00000000,250.00000000,0.00000000
-135.81212025,-232.42196051,0.29712035,0.00000000,250.00000000,0.00000000
63.60201817,-213.88065722,0.20024292,0.00000000,250.00000000,0.00000000
-10.16216050,52.11777904,0.20185444,250.00000000,0.00000000,0.00000000
-116.89033433,210.66197198,0.20656138,0.00000000,0.00000000,250.00000000
183.41816347,-12.26321803,0.17786128,250.00000000,0.00000000,0.00000000
-78.49858482,-248.58978622,0.22479926,0.00000000,250.00000000,0.00000000
-91.21412251,-316.88773774,0.12259351,0.00000000,250.00000000,0.00000000
19.04165868,-12.74121694,0.15990407,250.00000000,0.00000000,0.00000000
21.94680173,239.45370454,0.21656576,0.00000000,0.00000000,250.00000000
195.29053395,-209.30919946,0.22413103,0.00000000,250.00000000,0.00000000
-125.68372332,156.01778058,0.25229942,0.00000000,0.00000000,250.00000000
28.71047979,55.10531778,0.22347056,250.00000000,0.00000000,0.00000000
-128.34103033,478.77625077,0.22852363,0.00000000,0.00000000,250.00000000
67.69061695,-133.11201752,0.18417562,0.00000000,250.00000000,0.00000000
6.44740557,-257.62702105,0.22594306,0.00000000,250.00000000,0.00000000
74.29314454,248.82451069,0.21924651,0.00000000,0.00000000,250.00000000
-45.82912489,87.82990926,0.16387367,250.00000000,0.00000000,0.00000000
298.13955532,74.31494311,0.24451285,250.00000000,0.00000000,0.00000000
76.59832321,-121.02441249,0.30849699,250.00000000,0.00000000,0.00000000
-100.60572689,360.97395971,0.29485274,0.00000000,0.00000000,250.00000000
1.79419457,49.23591224,0.23592315,250.00000000,0.00000000,0.00000000
-157.92756614,130.77148611,0.26657591,0.00000000,0.00000000,250.00000000
-126.86400708,34.35014780,0.23583698,250.00000000,0.00000000,0.00000000
-16.12213291,-387.09339622,0.31375410,0.00000000,250.00000000,0.00000000
17.90737073,1.18112993,0.24564789,250.00000000,0.00000000,0.00000000
-46.56894967,123.62344920,0.22759601,0.00000000,0.00000000,250.00000000
-163.42608790,157.05554106,0.14053070,0.00000000,0.00000000,250.00000000
52.63896299,176.53895242,0.12757855,0.00000000,0.00000000,250.00000000
-54.45010828,256.59983577,0.21004070,0.00000000,0.00000000,250.00000000
-5.15458902,227.22461897,0.21174929,0.00000000,0.00000000,250.00000000
-40.52480958,313.77219939,0.21618059,0.00000000,0.00000000,250.00000000
60.58308754,-259.44028764,0.15429616,0.00000000,250.00000000,0.00000000
-99.57435410,18.83574502,0.14752986,250.00000000,0.00000000,0.00000000
-78.30978120,-117.29193169,0.19533385,250.00000000,0.00000000,0.00000000
11.87151800,-45.43676030,0.17213294,250.00000000,0.00000000,0.00000000
-6.53995906,-116.63021661,0.29517362,250.00000000,0.00000000,0.00000000
140.75388626,174.68655757,0.15416803,0.00000000,0.00000000,250.00000000
81.67542778,302.18686925,0.20426273,0.00000000,0.00000000,250.00000000
-84.84001260,386.88928575,0.19065981,0.00000000,0.00000000,250.00000000
-108.84498140,-158.40901573,0.19459583,0.00000000,250.00000000,0.00000000
-66.95349822,-0.93749513,0.20431607,250.00000000,0.00000000,0.00000000
177.38120807,-111.86022957,0.11839342,250.00000000,0.00000000,0.00000000
-30.37214163,117.04724804,0.18999659,250.00000000,0.00000000,0.00000000
40.67740500,-180.95868420,0.18332960,0.00000000,250.00000000,0.00000000
89.53697571,-126.96717595,0.13564148,0.00000000,250.00000000,0.00000000
142.07754368,213.74811833,0.18829104,0.00000000,0.00000000,250.00000000
-83.65856292,-2.69145498,0.13158848,250.00000000,0.00000000,0.00000000
142.91296995,-47.30618865,0.23621560,250.00000000,0.00000000,0.00000000
-66.98751583,-333.50242153,0.25305755,0.00000000,250.00000000,0.00000000
12.81582570,643.76436588,0.22891960,0.00000000,0.00000000,250.00000000
-53.51283832,-251.56906344,0.19351848,0.00000000,250.00000000,0.00000000
123.94215233,48.81386296,0.23895081,250.00000000,0.00000000,0.00000000
162.95597676,162.81916864,0.27450297,0.00000000,0.00000000,250.00000000
-110.60035843,-142.71216146,0.28495728,0.00000000,250.00000000,0.00000000
109.21355044,135.72560295,0.18293151,0.00000000,0.00000000,250.00000000
-27.29334373,-186.85657438,0.22631231,0.00000000,250.00000000,0.00000000
-37.77868426,-28.62981757,0.08371954,250.00000000,0.00000000,0.00000000
70.42057077,-155.54353358,0.13814427,0.00000000,250.00000000,0.00000000
-128.26892756,26.42560541,0.24119519,250.00000000,0.00000000,0.00000000
-99.94693921,-11.31802963,0.17202294,250.00000000,0.00000000,0.00000000
57.34598512,-113.50708283,0.27018209,250.00000000,0.00000000,0.00000000
-124.75627943,138.99169722,0.21529982,0.00000000,0.00000000,250.00000000
24.44999463,-452.11554652,0.14188396,0.00000000,250.00000000,0.00000000
10.04963367,148.25979643,0.20422564,0.00000000,0.00000000,250.00000000
-182.42755228,180.61533844,0.17551132,0.00000000,0.00000000,250.00000000
-93.56194910,66.77992312,0.25819803,250.00000000,0.00000000,0.00000000
88.99822798,164.04753594,0.26376445,0.00000000,0.00000000,250.00000000
30.66153176,-158.27421169,0.16139458,0.00000000,250.00000000,0.00000000
222.71930204,136.96395397,0.09759308,0.00000000,0.00000000,250.00000000
1.58761052,163.54100302,0.18598315,0.00000000,0.00000000,250.00000000
-27.43665104,39.90539570,0.26922380,250.00000000,0.00000000,0.00000000
117.64525695,242.09664509,0.26155071,0.00000000,0.00000000,250.00000000
58.54137025,72.56309524,0.16277821,250.00000000,0.00000000,0.00000000
42.24345804,-70.74372589,0.21089541,250.00000000,0.00000000,0.00000000
123.26765499,-175.45113171,0.19998424,0.00000000,250.00000000,0.00000000
264.84685018,-31.54724047,0.26171174,250.00000000,0.00000000,0.00000000
-100.91207245,-153.63332236,0.10657582,0.00000000,250.00000000,0.00000000
74.21902164,-378.30946465,0.25972559,0.00000000,250.00000000,0.00000000
-35.33695972,345.95566311,0.24696938,0.00000000,0.00000000,250.00000000
33.28849351,-51.08984566,0.22003536,250.00000000,0.00000000,0.00000000
162.06071705,-82.28830728,0.12166969,250.00000000,0.00000000,0.00000000
-118.56002958,-289.37826421,0.21367423,0.00000000,250.00000000,0.00000000
-108.21202609,141.86460746,0.21297717,0.00000000,0.00000000,250.00000000
36.96628149,-188.13370513,0.24699590,0.00000000,250.00000000,0.00000000
-40.75461540,34.81375516,0.27343611,250.00000000,0.00000000,0.00000000
56.33268984,6.46613456,0.19141611,250.00000000,0.00000000,0.00000000
-95.67304040,-462.63760725,0.24444970,0.00000000,250.00000000,0.00000000
-141.13688941,126.66458977,0.15950012,0.00000000,0.00000000,250.00000000
153.82741369,-92.69729940,0.18197650,250.00000000,0.00000000,0.00000000
-27.98131403,-27.91946039,0.20018168,250.00000000,0.00000000,0.00000000
119.27018350,-264.32761778,0.13196926,0.00000000,250.00000000,0.00000000
16.06304268,-480.97292030,0.21786004,0.00000000,250.00000000,0.00000000
-43.41480087,95.08893989,0.20619005,250.00000000,0.00000000,0.00000000
-177.75822491,-56.38236940,0.20914679,250.00000000,0.00000000,0.00000000
-88.01333162,74.87327126,0.24996413,250.00000000,0.00000000,0.00000000
-34.40826620,283.49519277,0.13569968,0.00000000,0.00000000,250.00000000
32.95943083,457.53633601,0.15425669,0.00000000,0.00000000,250.00000000
86.57054852,140.07590996,0.21564594,0.00000000,0.00000000,250.00000000
150.78408315,-123.39179419,0.24205507,250.00000000,0.00000000,0.00000000
-130.91091526,-11.30759866,0.16287724,250.00000000,0.00000000,0.00000000
70.95525331,152.60483199,0.14551798,0.00000000,0.00000000,250.00000000
-81.64061311,-302.04831048,0.22445608,0.00000000,250.00000000,0.00000000
-152.90151594,-394.00857399,0.27436519,0.00000000,250.00000000,0.00000000
109.13435091,15.54141581,0.22730356,250.00000000,0.00000000,0.00000000
-143.18609582,60.91882494,0.20350257,250.00000000,0.00000000,0.00000000
-13.83350535,-495.46536922,0.21877426,0.00000000,250.00000000,0.00000000
-232.41083601,395.20827076,0.21762922,0.00000000,0.00000000,250.00000000
64.51572549,10.94913909,0.15438586,250.00000000,0.00000000,0.00000000
-90.29508077,-389.74624655,0.20325004,0.00000000,250.00000000,0.00000000
-82.72188626,195.36595812,0.19316395,0.00000000,0.00000000,250.00000000
-5.92262192,-32.66860812,0.22319278,250.00000000,0.00000000,0.00000000
-163.48051120,29.91198599,0.31725700,250.00000000,0.00000000,0.00000000
129.78954673,-105.59902944,0.12223403,250.00000000,0.00000000,0.00000000
37.06593617,100.11566030,0.12123110,250.00000000,0.00000000,0.00000000
-64.89822597,479.79807232,0.14577050,0.00000000,0.00000000,250.00000000
69.45705433,460.67457538,0.23707573,0.00000000,0.00000000,250.00000000
125.44696757,145.78867098,0.17697372,0.00000000,0.00000000,250.00000000
-83.95395531,336.94340604,0.18382774,0.00000000,0.00000000,250.00000000
-5.64954523,-103.38282665,0.14034636,250.00000000,0.00000000,0.00000000
31.05898680,12.61175076,0.25975019,250.00000000,0.00000000,0.00000000
-220.31708136,-240.86653963,0.22371643,0.00000000,250.00000000,0.00000000
-58.29616424,-218.17737904,0.28766212,0.00000000,250.00000000,0.00000000
76.85749385,-101.99644574,0.21432471,250.00000000,0.00000000,0.00000000
-42.45501753,51.29367010,0.20482070,250.00000000,0.00000000,0.00000000
21.45140048,-403.42240653,0.18963088,0.00000000,250.00000000,0.00000000
15.62917575,1.15039573,0.13509568,250.00000000,0.00000000,0.00000000
-91.16031750,-175.55290454,0.13696300,0.00000000,250.00000000,0.00000000
-18.95598121,364.25083378,0.18138091,0.00000000,0.00000000,250.00000000
-75.14831586,1.13458933,0.25752238,250.00000000,0.00000000,0.00000000
-132.49798274,-139.21241459,0.15121732,0.00000000,250.00000000,0.00000000
-45.86831712,-24.35814657,0.25247729,250.00000000,0.00000000,0.00000000
229.71251424,366.41254687,0.19157285,0.00000000,0.00000000,250.00000000
74.72051478,-46.37819803,0.18196856,250.00000000,0.00000000,0.00000000
-30.75723319,292.04409808,0.23349733,0.00000000,0.00000000,250.00000000
-46.39789926,293.22080288,0.27629405,0.00000000,0.00000000,250.00000000
68.36492633,372.54092843,0.18945448,0.00000000,0.00000000,250.00000000
-107.94965773,-40.37548194,0.17377235,250.00000000,0.00000000,0.00000000
-185.85309780,-136.00338713,0.18689497,0.00000000,250.00000000,0.00000000
12.61534028,197.96814325,0.21924376,0.00000000,0.00000000,250.00000000
-5.94520414,311.09922245,0.21608485,0.00000000,0.00000000,250.00000000
-56.90043158,94.61297077,0.18202158,250.00000000,0.00000000,0.00000000
54.49115782,-82.11935069,0.21516199,250.00000000,0.00000000,0.00000000
52.81715088,-303.47856129,0.28295193,0.00000000,250.00000000,0.00000000
-38.52293060,-139.04555988,0.21486224,0.00000000,250.00000000,0.00000000
52.89762906,584.67938469,0.36187138,0.00000000,0.00000000,250.00000000
-121.27542750,36.35379543,0.26184356,250.00000000,0.00000000,0.00000000
-10.16515664,82.18404123,0.23400066,250.00000000,0.00000000,0.00000000
-61.44937697,158.62200146,0.10369999,0.00000000,0.00000000,250.00000000
-104.52625924,36.58220230,0.22461951,250.00000000,0.00000000,0.00000000
17.26215838,146.27408120,0.14871906,0.00000000,0.00000000,250.00000000
43.31460097,237.65083779,0.19236385,0.00000000,0.00000000,250.00000000
-104.57005404,127.67912508,0.17023518,0.00000000,0.00000000,250.00000000
71.33457278,133.27769107,0.19477647,0.00000000,0.00000000,250.00000000
-26.32900262,-48.73276862,0.25052942,250.00000000,0.00000000,0.00000000
-95.80047080,172.66622113,0.20286433,0.00000000,0.00000000,250.00000000
78.56240969,98.23002096,0.25607791,250.00000000,0.00000000,0.00000000
-83.77325026,-109.20233921,0.22768595,250.00000000,0.00000000,0.00000000
-102.71778744,24.76383925,0.15400183,250.00000000,0.00000000,0.00000000
-64.40308818,255.91196645,0.07478908,0.00000000,0.00000000,250.00000000
-184.15442189,173.66482916,0.21656464,0.00000000,0.00000000,250.00000000
10.25720666,-326.51282608,0.22277441,0.00000000,250.00000000,0.00000000
-23.70678770,61.92876355,0.21214903,250.00000000,0.00000000,0.00000000
5.87308127,-114.24974451,0.26044303,250.00000000,0.00000000,0.00000000
6.73516485,109.09015171,0.10755046,250.00000000,0.00000000,0.00000000
-5.69959185,-173.57739354,0.19411028,0.00000000,250.00000000,0.00000000
-41.54846052,137.49923855,0.22295016,0.00000000,0.00000000,250.00000000
50.89343097,25.70974306,0.20364726,250.00000000,0.00000000,0.00000000
-92.72357082,3.21283263,0.23431504,250.00000000,0.00000000,0.00000000
45.75840580,235.84943899,0.18565323,0.00000000,0.00000000,250.00000000
-172.15744717,-541.14466724,0.31619872,0.00000000,250.00000000,0.00000000
-26.20831275,38.68715210,0.17264198,250.00000000,0.00000000,0.00000000
132.03075168,259.27755293,0.21312621,0.00000000,0.00000000,250.00000000
-163.92079467,-190.42250262,0.22078141,0.00000000,250.00000000,0.00000000
-227.31028697,-15.99687848,0.15413256,250.00000000,0.00000000,0.00000000
-93.73702502,62.98983543,0.23586483,250.00000000,0.00000000,0.00000000
-90.75253332,-60.83251691,0.33873879,250.00000000,0.00000000,0.00000000
-47.72062039,66.83282736,0.25941812,250.00000000,0.00000000,0.00000000
-88.34503724,218.01974305,0.22911022,0.00000000,0.00000000,250.00000000
95.83478862,67.64037713,0.15912067,250.00000000,0.00000000,0.00000000
233.40844668,441.81066046,0.25414233,0.00000000,0.00000000,250.00000000
38.26150821,-324.69153971,0.13633024,0.00000000,250.00000000,0.00000000
62.31596432,-176.02769999,0.26145809,0.00000000,250.00000000,0.00000000
131.25430850,172.55068403,0.25609573,0.00000000,0.00000000,250.00000000
-47.62383511,-297.49182351,0.17633951,0.00000000,250.00000000,0.00000000
12.43698917,-92.01458610,0.19948018,250.00000000,0.00000000,0.00000000
-153.66424113,-57.34074306,0.24382098,250.00000000,0.00000000,0.00000000
-220.13605936,99.51550288,0.13783551,250.00000000,0.00000000,0.00000000
-40.76302534,213.38337746,0.28573637,0.00000000,0.00000000,250.00000000
-69.98338605,134.64324351,0.13769828,0.00000000,0.00000000,250.00000000
-80.01979474,270.00533988,0.23378006,0.00000000,0.00000000,250.00000000
62.05527854,129.05576022,0.23064549,0.00000000,0.00000000,250.00000000
69.03035019,-287.38096341,0.34842419,0.00000000,250.00000000,0.00000000
-44.45451121,-26.46314804,0.15279952,250.00000000,0.00000000,0.00000000
-81.80960148,157.20906577,0.09772010,0.00000000,0.00000000,250.00000000
39.24056375,-52.02684221,0.36454640,250.00000000,0.00000000,0.00000000
89.44681911,94.77975615,0.24763071,250.00000000,0.00000000,0.00000000
-138.18442997,-188.56975011,0.28945017,0.00000000,250.00000000,0.00000000
-93.62843279,237.19677510,0.28874686,0.00000000,0.00000000,250.00000000
6.31367300,323.85143955,0.23078870,0.00000000,0.00000000,250.00000000
-12.81878159,22.40605128,0.19533363,250.00000000,0.00000000,0.00000000
-77.00032955,570.03366194,0.23057183,0.00000000,0.00000000,250.00000000
-92.15336159,-242.68387690,0.23154600,0.00000000,250.00000000,0.00000000
-201.03288971,22.33541173,0.18027118,250.00000000,0.00000000,0.00000000
-35.81627911,214.91577636,0.17773658,0.00000000,0.00000000,250.00000000
157.81374507,-37.62874026,0.22290586,250.00000000,0.00000000,0.00000000
76.68369222,139.55756346,0.15584200,0.00000000,0.00000000,250.00000000
7.37319526,66.01875775,0.15455318,250.00000000,0.00000000,0.00000000
25.86556042,62.82037982,0.20580092,250.00000000,0.00000000,0.00000000
-174.54291042,-58.57906951,0.25156792,250.00000000,0.00000000,0.00000000
26.79399023,-124.23926057,0.21763896,250.00000000,0.00000000,0.00000000
33.39305799,-38.17478041,0.17474366,250.00000000,0.00000000,0.00000000
36.97892677,150.59322284,0.22734358,0.00000000,0.00000000,250.00000000
-6.77941971,-39.56981751,0.21272661,250.00000000,0.00000000,0.00000000
-6.25707617,210.53419754,0.17178462,0.00000000,0.00000000,250.00000000
6.96901750,254.49407149,0.20769374,0.00000000,0.00000000,250.00000000
-11.39871717,-168.78828709,0.22756169,0.00000000,250.00000000,0.00000000
111.20830747,99.60029030,0.12702753,250.00000000,0.00000000,0.00000000
70.59025440,20.27350749,0.20869375,250.00000000,0.00000000,0.00000000
-61.95781013,-254.03909564,0.26016575,0.00000000,250.00000000,0.00000000
64.47540243,146.11976847,0.15381657,0.00000000,0.00000000,250.00000000
-21.54998007,233.24746175,0.19388960,0.00000000,0.00000000,250.00000000
-91.21427611,58.68633639,0.30570459,250.00000000,0.00000000,0.00000000
150.16461868,11.84041093,0.22236890,250.00000000,0.00000000,0.00000000
-41.27694363,269.96868003,0.19600336,0.00000000,0.00000000,250.00000000
-180.93970598,323.81408697,0.19644692,0.00000000,0.00000000,250.00000000
-111.20340478,6.50216185,0.19156936,250.00000000,0.00000000,0.00000000
-104.89759820,141.58810871,0.13495744,0.00000000,0.00000000,250.00000000
3.56912719,-183.57710934,0.19528941,0.00000000,250.00000000,0.00000000
39.46056629,-143.32792716,0.17393581,0.00000000,250.00000000,0.00000000
-38.49926152,-29.00848661,0.22962757,250.00000000,0.00000000,0.00000000
72.42814656,-318.94293913,0.21110966,0.00000000,250.00000000,0.00000000
46.45366971,-188.21072692,0.22575641,0.00000000,250.00000000,0.00000000
81.73045991,-161.13658737,0.15849814,0.00000000,250.00000000,0.00000000
-116.31893961,1.01616599,0.22646896,250.00000000,0.00000000,0.00000000
89.36676101,110.83842646,0.10790484,250.00000000,0.00000000,0.00000000
148.93619899,80.80181393,0.17515927,250.00000000,0.00000000,0.00000000
-302.78500019,-425.27928273,0.16762083,0.00000000,250.00000000,0.00000000
-51.67399191,-371.09497532,0.25351421,0.00000000,250.00000000,0.00000000
-16.26220592,8.86904988,0.23879170,250.00000000,0.00000000,0.00000000
144.35060168,289.18340041,0.14958147,0.00000000,0.00000000,250.00000000
-32.95426447,-48.05460212,0.17243573,250.00000000,0.00000000,0.00000000
-24.20311489,34.63019617,0.19649769,250.00000000,0.00000000,0.00000000
-8.69820245,-358.28941189,0.29871274,0.00000000,250.00000000,0.00000000
224.46409159,-84.12018451,0.18362666,250.00000000,0.00000000,0.00000000
241.56340234,198.22340081,0.17777513,0.00000000,0.00000000,250.00000000
-31.07897983,340.73958466,0.17761724,0.00000000,0.00000000,250.00000000
-21.40384155,267.21798323,0.19433620,0.00000000,0.00000000,250.00000000
-24.58707080,36.40764849,0.22497255,250.00000000,0.00000000,0.00000000
139.31040257,-108.11574456,0.19518437,250.00000000,0.00000000,0.00000000
6.78697873,-38.36497240,0.16321626,250.00000000,0.00000000,0.00000000
-9.49257915,-75.09033134,0.24822457,250.00000000,0.00000000,0.00000000
-53.35178855,-193.65494837,0.09186431,0.00000000,250.00000000,0.00000000
-118.20682445,-69.33954672,0.16779631,250.00000000,0.00000000,0.00000000
-82.84785982,-155.04955839,0.10777574,0.00000000,250.00000000,0.00000000
16.04444182,26.78124747,0.15658180,250.00000000,0.00000000,0.00000000
-47.70142971,-162.26650439,0.21789240,0.00000000,250.00000000,0.00000000
25.19460077,-127.79417113,0.21350972,0.00000000,250.00000000,0.00000000
-31.50495933,297.17722060,0.24852953,0.00000000,0.00000000,250.00000000
147.65784911,306.17951121,0.25388821,0.00000000,0.00000000,250.00000000
-58.63505343,21.20357175,0.19579906,250.00000000,0.00000000,0.00000000
5.42599284,-235.83078885,0.18443956,0.00000000,250.00000000,0.00000000
61.44956064,-361.48267097,0.13999567,0.00000000,250.00000000,0.00000000
-104.60067470,-362.14781927,0.20246704,0.00000000,250.00000000,0.00000000
27.97118038,23.92307234,0.17967437,250.00000000,0.00000000,0.00000000
-10.27376940,-21.06143298,0.23963637,250.00000000,0.00000000,0.00000000
161.87423023,20.05592047,0.22385343,250.00000000,0.00000000,0.00000000
3.39880633,-98.73189428,0.25532764,250.00000000,0.00000000,0.00000000
-39.13563717,34.91007732,0.25416194,250.00000000,0.00000000,0.00000000
-18.63644496,-199.68490135,0.28074728,0.00000000,250.00000000,0.00000000
-37.56242133,140.46563649,0.16934089,0.00000000,0.00000000,250.00000000
-115.58333896,-208.98869590,0.20564675,0.00000000,250.00000000,0.00000000
97.44488728,-372.69504620,0.19256778,0.00000000,250.00000000,0.00000000
-8.17633835,122.55039910,0.25343161,0.00000000,0.00000000,250.00000000
73.65038039,106.88094349,0.13802803,250.00000000,0.00000000,0.00000000
-45.23320518,83.68639553,0.25839530,250.00000000,0.00000000,0.00000000
-1.06429349,347.63093155,0.25411634,0.00000000,0.00000000,250.00000000
21.16708990,64.12372198,0.29220252,250.00000000,0.00000000,0.00000000
85.02416898,-87.71394628,0.27973067,250.00000000,0.00000000,0.00000000
-87.39518407,79.50411039,0.23646699,250.00000000,0.00000000,0.00000000
48.49555698,102.17196000,0.15454521,250.00000000,0.00000000,0.00000000
-33.88281647,-28.35233734,0.16294718,250.00000000,0.00000000,0.00000000
-8.57635785,-275.87166376,0.18263834,0.00000000,250.00000000,0.00000000
-54.13704078,14.62605368,0.28935290,250.00000000,0.00000000,0.00000000
46.48989452,-400.65240584,0.15522868,0.00000000,250.00000000,0.00000000
60.56761469,-170.75842733,0.14211021,0.00000000,250.00000000,0.00000000
-40.42502224,-21.68922150,0.25066812,250.00000000,0.00000000,0.00000000
-100.10724502,-65.45680098,0.22361268,250.00000000,0.00000000,0.00000000
13.34758557,298.95018901,0.19072742,0.00000000,0.00000000,250.00000000
-87.10750794,-160.86831647,0.15328640,0.00000000,250.00000000,0.00000000
42.48126186,109.06037116,0.21718374,250.00000000,0.00000000,0.00000000
15.09081566,-127.09097146,0.27477113,0.00000000,250.00000000,0.00000000
-18.38025867,-150.01182492,0.20923349,0.00000000,250.00000000,0.00000000
74.74324580,-64.45972019,0.15244759,250.00000000,0.00000000,0.00000000
5.05963719,-29.83238945,0.23720504,250.00000000,0.00000000,0.00000000
88.38731929,243.50380515,0.18749018,0.00000000,0.00000000,250.00000000
-6.00887049,-114.12406828,0.15511073,250.00000000,0.00000000,0.00000000
-37.64083792,178.31958050,0.22391401,0.00000000,0.00000000,250.00000000
58.57098216,-55.48009745,0.20697732,250.00000000,0.00000000,0.00000000
99.15648218,166.18045162,0.14613139,0.00000000,0.00000000,250.00000000
110.97519741,66.88557909,0.18045304,250.00000000,0.00000000,0.00000000
-59.70252563,-157.86263374,0.21088170,0.00000000,250.00000000,0.00000000
-120.29888742,-95.47796026,0.12941798,250.00000000,0.00000000,0.00000000
85.13527573,-153.13454337,0.20722566,0.00000000,250.00000000,0.00000000
-34.31652399,340.62807876,0.11657592,0.00000000,0.00000000,250.00000000
-65.24982301,626.86932668,0.12608497,0.00000000,0.00000000,250.00000000
-8.75424571,-63.78415054,0.26010589,250.00000000,0.00000000,0.00000000
145.23717501,134.92764583,0.18667857,0.00000000,0.00000000,250.00000000
-97.13914338,-146.39176151,0.14254793,0.00000000,250.00000000,0.00000000
128.22581252,99.07910661,0.23623908,250.00000000,0.00000000,0.00000000
-185.73644876,-258.26666439,0.19755449,0.00000000,250.00000000,0.00000000
-7.34698328,-245.16368231,0.21325850,0.00000000,250.00000000,0.00000000
32.81791073,5.55896273,0.21666975,250.00000000,0.00000000,0.00000000
74.82113482,-73.24137590,0.19371589,250.00000000,0.00000000,0.00000000
104.71174207,4.55505162,0.18607407,250.00000000,0.00000000,0.00000000
-114.43314168,4.12727026,0.29069724,250.00000000,0.00000000,0.00000000
83.69357838,-190.88444964,0.17102759,0.00000000,250.00000000,0.00000000
111.26908272,52.71194208,0.26568300,250.00000000,0.00000000,0.00000000
-171.50784427,-63.93200390,0.29351061,250.00000000,0.00000000,0.00000000
26.44757968,108.66519950,0.19469789,250.00000000,0.00000000,0.00000000
57.28159988,121.48203676,0.29416837,0.00000000,0.00000000,250.00000000
55.65253475,-126.66639994,0.21093572,0.00000000,250.00000000,0.00000000
6.86360851,-154.53827678,0.23944528,0.00000000,250.00000000,0.00000000
120.40652141,165.03040509,0.22279308,0.00000000,0.00000000,250.00000000
-37.62660373,39.18567794,0.19733892,250.00000000,0.00000000,0.00000000
62.43339708,-279.07890157,0.14380130,0.00000000,250.00000000,0.00000000
-85.26156042,-32.46568000,0.18235618,250.00000000,0.00000000,0.00000000
113.75294548,114.71995372,0.15173513,250.00000000,0.00000000,0.00000000
79.37622748,-94.11424166,0.17016811,250.00000000,0.00000000,0.00000000
84.60830786,-37.19905376,0.23617835,250.00000000,0.00000000,0.00000000
105.58850043,-218.77136051,0.21864778,0.00000000,250.00000000,0.00000000
-187.73400722,-106.13435688,0.14875677,250.00000000,0.00000000,0.00000000
37.04903390,42.13928068,0.14555616,250.00000000,0.00000000,0.00000000
34.92728497,100.71177269,0.11957705,250.00000000,0.00000000,0.00000000
47.27151751,-595.67136246,0.13919018,0.00000000,250.00000000,0.00000000
-113.57337382,-93.05886568,0.15418268,250.00000000,0.00000000,0.00000000
-125.58580351,-457.91268586,0.21407258,0.00000000,250.00000000,0.00000000
-124.13921082,12.15971255,0.26683065,250.00000000,0.00000000,0.00000000
-66.48036820,-70.59744979,0.21196084,250.00000000,0.00000000,0.00000000
-46.80407154,77.93954143,0.15364055,250.00000000,0.00000000,0.00000000
-160.26978594,-174.96942131,0.22239505,0.00000000,250.00000000,0.00000000
-97.25598719,126.11939617,0.19558691,0.00000000,0.00000000,250.00000000
-266.94347781,71.99541725,0.21503694,250.00000000,0.00000000,0.00000000
-95.00796967,-27.86377980,0.16723105,250.00000000,0.00000000,0.00000000
-10.11523365,-258.85930135,0.27907377,0.00000000,250.00000000,0.00000000
-173.21399200,-223.15041994,0.19352255,0.00000000,250.00000000,0.00000000
-13.75479844,56.73764090,0.14709209,250.00000000,0.00000000,0.00000000
58.93577322,-88.29596418,0.16895281,250.00000000,0.00000000,0.00000000
105.35681483,83.68679973,0.20716779,250.00000000,0.00000000,0.00000000
104.04021792,479.64214553,0.20354947,0.00000000,0.00000000,250.00000000
-193.58506120,196.67595307,0.23130639,0.00000000,0.00000000,250.00000000
50.33388569,-21.01869891,0.19277439,250.00000000,0.00000000,0.00000000
-25.84377401,23.88234895,0.17160548,250.00000000,0.00000000,0.00000000
204.74589433,-95.93595737,0.24510043,250.00000000,0.00000000,0.00000000
-85.35903238,-60.19650517,0.23374193,250.00000000,0.00000000,0.00000000
-1.42393315,-71.87775678,0.14546344,250.00000000,0.00000000,0.00000000
304.11419275,18.49042829,0.20414831,250.00000000,0.00000000,0.00000000
3.37697793,-174.07199046,0.25197006,0.00000000,250.00000000,0.00000000
55.13674574,-250.17803319,0.28597012,0.00000000,250.00000000,0.00000000
214.44253507,44.83456122,0.15741371,250.00000000,0.00000000,0.00000000
-122.78765924,-52.34847107,0.14947515,250.00000000,0.00000000,0.00000000
36.49192644,76.25603180,0.23322761,250.00000000,0.00000000,0.00000000
-124.28072771,-27.36338686,0.27722018,250.00000000,0.00000000,0.00000000
-69.03440547,-206.88250459,0.18085358,0.00000000,250.00000000,0.00000000
20.85361318,64.63631660,0.17664866,250.00000000,0.00000000,0.00000000
90.62077755,61.52667830,0.16678507,250.00000000,0.00000000,0.00000000
80.76218752,-30.19104680,0.12607406,250.00000000,0.00000000,0.00000000
-6.29976201,-96.15142357,0.22633547,250.00000000,0.00000000,0.00000000
-54.35296830,-77.45438199,0.11851630,250.00000000,0.00000000,0.00000000
-60.89743216,-14.80823043,0.22278295,250.00000000,0.00000000,0.00000000
-31.17722245,-317.10271851,0.19963566,0.00000000,250.00000000,0.00000000
-84.58877985,89.30668885,0.21047344,250.00000000,0.00000000,0.00000000
78.63367622,235.40318966,0.25222571,0.00000000,0.00000000,250.00000000
127.60501904,48.96787949,0.18566912,250.00000000,0.00000000,0.00000000
-199.51921549,11.80297251,0.23007600,250.00000000,0.00000000,0.00000000
79.44094802,-81.40217415,0.14618141,250.00000000,0.00000000,0.00000000
162.19453457,-309.04716818,0.24145604,0.00000000,250.00000000,0.00000000
-24.99004981,-269.59449233,0.17946423,0.00000000,250.00000000,0.00000000
-120.51614579,141.31571772,0.13857115,0.00000000,0.00000000,250.00000000
-127.40243004,-93.19112046,0.17814578,250.00000000,0.00000000,0.00000000
218.40306368,78.91406082,0.22522708,250.00000000,0.00000000,0.00000000
-200.62831923,133.27900458,0.25444205,0.00000000,0.00000000,250.00000000
135.04326140,130.47999465,0.28565974,0.00000000,0.00000000,250.00000000
-48.57853795,-502.48955478,0.18484457,0.00000000,250.00000000,0.00000000
134.56655201,-127.02352004,0.21348318,0.00000000,250.00000000,0.00000000
-9.21179457,-5.38313332,0.18605589,250.00000000,0.00000000,0.00000000
-63.94539915,-524.57614136,0.26858250,0.00000000,250.00000000,0.00000000
-4.09693607,88.64224417,0.29468449,250.00000000,0.00000000,0.00000000
63.24171063,-185.99457191,0.16011699,0.00000000,250.00000000,0.00000000
8.26445265,109.21929374,0.21934655,250.00000000,0.00000000,0.00000000
94.43266749,167.89845648,0.15644897,0.00000000,0.00000000,250.00000000
63.78215118,21.40808345,0.17168014,250.00000000,0.00000000,0.00000000
-108.65760852,275.84413608,0.21650943,0.00000000,0.00000000,250.00000000
-88.21346754,47.86141699,0.17120684,250.00000000,0.00000000,0.00000000
-71.25398980,-36.76728637,0.18997039,250.00000000,0.00000000,0.00000000
-100.96131220,-141.08640284,0.19725796,0.00000000,250.00000000,0.00000000
